ply
format ascii 1.0
element vertex 789
property float x
property float y
property float z
end_header
-0.08188450336456299 0.041890695691108704 0.7462990880012512
-0.007790320087224245 0.04397595673799515 -0.49950146675109863
0.35425877571105957 -0.0317123644053936 0.5690062642097473
0.29848697781562805 -0.07700525969266891 0.37316662073135376
-0.7793771028518677 0.03984360024333 -0.016746919602155685
0.3165907859802246 -0.07372964918613434 0.5663912296295166
-0.7028743028640747 0.04470696672797203 0.002690470078960061
-0.4870961606502533 0.03153134137392044 0.03503742814064026
0.2944851219654083 -0.08703041821718216 -0.3247356712818146
-0.09336961060762405 -0.0013213446363806725 0.680873453617096
0.10477805882692337 -0.1385543793439865 -0.5895253419876099
-0.7309172749519348 0.00859854556620121 0.05364034324884415
0.2766959071159363 -0.03196827694773674 0.5954452753067017
0.24573549628257751 -0.011896181851625443 -0.3569841980934143
0.2806752026081085 -0.03227247670292854 -0.1624860018491745
-0.07102806121110916 0.018468106165528297 -0.06144077703356743
0.18289417028427124 0.007466259878128767 0.013887672685086727
-0.012269113212823868 -0.08073944598436356 -0.0518503375351429
-0.27795884013175964 -0.017125144600868225 -0.6236028671264648
-0.17587052285671234 0.015910234302282333 0.6089929342269897
-0.08409454673528671 -0.0599287673830986 0.06088792532682419
-0.15682865679264069 -0.026536451652646065 0.10318663716316223
0.3909013271331787 -0.053559690713882446 0.20502761006355286
-0.814916729927063 0.06672175228595734 -0.04055755212903023
-0.7181017994880676 0.11103817820549011 0.0029073399491608143
0.36019203066825867 0.03846494108438492 -0.31251293420791626
0.9749295115470886 -0.11287142336368561 0.0009416983230039477
0.292614221572876 -0.10016518831253052 0.2290746122598648
0.1256585419178009 -0.03873932361602783 0.48134881258010864
0.41242003440856934 0.11724371463060379 0.020398274064064026
0.026536626741290092 -0.14566153287887573 -0.3401035964488983
0.5884323716163635 -0.09793262928724289 -0.029101865366101265
0.09573052078485489 -0.06760771572589874 -0.09924353659152985
0.07897048443555832 -0.04214192181825638 0.03051277995109558
-0.24780508875846863 -0.06645191460847855 0.4709613621234894
-0.7633328437805176 0.15373192727565765 -0.21706508100032806
0.19442160427570343 -0.07459037005901337 0.37425482273101807
-0.003059373004361987 -0.0457446426153183 -0.23995743691921234
-0.46201303601264954 0.09122244268655777 0.005501740146428347
-0.017557652667164803 -0.0007707015029154718 0.1277017444372177
0.24766503274440765 -0.042209792882204056 -0.49165990948677063
0.011153222993016243 0.023556388914585114 0.43637654185295105
0.24531929194927216 -0.01631157472729683 -0.1787744164466858
-0.16844859719276428 -0.08569154143333435 -0.411587119102478
0.0550197958946228 0.06277209520339966 -0.7187589406967163
0.3535485565662384 0.013760720379650593 0.14715437591075897
-0.14814426004886627 -0.00848089437931776 -0.6838908791542053
0.35314664244651794 -0.04571684077382088 -0.39189642667770386
0.0851917415857315 -0.030645880848169327 -0.23625442385673523
-0.09966940432786942 -0.024354906752705574 -0.04341544955968857
0.04274649918079376 0.05378644913434982 0.19657522439956665
-0.688573956489563 0.1504574716091156 -0.017801111564040184
0.003578475909307599 -0.038670241832733154 -0.548917293548584
0.19434675574302673 -0.15655648708343506 0.2805941700935364
0.3533281087875366 -0.16602954268455505 -0.04640667885541916
-0.29754987359046936 0.02116404101252556 0.0021497542038559914
-0.5775024890899658 0.2714264392852783 0.05978769063949585
-0.7066614031791687 0.10376015305519104 -0.003785137552767992
-0.3089657723903656 0.07217156887054443 -0.049340058118104935
-0.007658061105757952 0.02287786640226841 -0.5262399911880493
-0.11787575483322144 0.034298352897167206 -0.4670933187007904
0.12713058292865753 -0.06301194429397583 -0.13604401051998138
0.9760650396347046 -0.10022934526205063 -0.0034002703614532948
0.6068313717842102 -0.008643843233585358 -0.04793219268321991
0.08415117114782333 -0.07115740329027176 -0.30412235856056213
-0.47414809465408325 0.043309688568115234 -0.05145080387592316
0.274246484041214 0.01373756118118763 -0.9030912518501282
0.4861190617084503 -0.16228467226028442 -0.08420506864786148
-0.09370069950819016 0.02245255373418331 0.5141435861587524
0.07758618146181107 -0.13909070193767548 -0.2987416684627533
-0.6573853492736816 0.18994297087192535 0.06407442688941956
0.20973379909992218 0.0298684723675251 1.0
0.005366069730371237 0.019256357103586197 -0.4119205176830292
-0.6608818173408508 0.020787017419934273 0.0933845192193985
0.07156910002231598 -0.12848779559135437 -0.0690222680568695
0.08574362844228745 -0.06722573935985565 0.07568629831075668
-0.0928783193230629 -0.0750817209482193 -0.10192984342575073
-0.6343149542808533 0.4083423912525177 0.0022888625971972942
0.09258773177862167 -0.05066057667136192 -0.6742817163467407
-0.06659471243619919 -0.043091513216495514 0.07538927346467972
-0.5129941701889038 0.2342519909143448 0.062258269637823105
-0.6451658010482788 0.16850312054157257 0.019803307950496674
0.026736589148640633 -0.11040602624416351 -0.25695592164993286
-0.058907583355903625 0.08865208923816681 1.0
0.199802428483963 0.08429829776287079 -0.10163994878530502
0.34637513756752014 -0.010191505774855614 0.10474253445863724
0.4186929166316986 -0.06818309426307678 -0.3574981093406677
0.21541982889175415 0.11481383442878723 0.024552926421165466
0.46663978695869446 0.05976814031600952 0.12198348343372345
-0.1566835343837738 0.008644125424325466 -0.08155990391969681
-0.8252841830253601 0.03763530030846596 0.12514911592006683
0.42903926968574524 -0.014642219990491867 0.19817398488521576
-0.6403726935386658 0.10070634633302689 0.07720164954662323
0.5929690003395081 -0.030284296721220016 0.06564881652593613
-0.12323382496833801 -0.07929809391498566 0.3939080238342285
-0.0844060480594635 -0.011950128711760044 -0.22448307275772095
0.44990864396095276 -0.02811633236706257 -0.04532288759946823
0.2531146705150604 -0.0704193040728569 0.18792907893657684
0.30158501863479614 -0.10374923795461655 -0.44546088576316833
0.5825374722480774 0.1505931317806244 -0.01981361024081707
0.23530350625514984 0.044716306030750275 -0.24679191410541534
-0.8285646438598633 0.023470532149076462 -0.12330722063779831
-0.44355255365371704 0.022472955286502838 -0.088130421936512
0.21024471521377563 0.03620215877890587 0.5698944330215454
0.07300891727209091 -0.05528497323393822 -0.1366293728351593
0.04385637491941452 -0.10315437614917755 -0.2696418762207031
-0.4698135554790497 0.033974070101976395 0.06242511793971062
0.5843071341514587 0.012782517820596695 -0.012400837615132332
0.26164597272872925 -0.1083936095237732 -0.13303454220294952
-0.22223468124866486 -0.0284098032861948 0.2772676944732666
0.8299039006233215 -0.08425688743591309 -0.13638761639595032
0.1917770653963089 -0.12667112052440643 0.39460745453834534
0.6603140830993652 0.02186736650764942 0.010460063815116882
0.2963334321975708 -0.08802016824483871 -0.32473576068878174
0.46048274636268616 0.09537481516599655 -0.046750638633966446
0.01755092293024063 -0.13242313265800476 -0.3525659143924713
0.42300257086753845 0.07287610322237015 -1.0
-0.33413204550743103 0.06069789081811905 0.05097994953393936
0.057968027889728546 -0.06389038264751434 0.3605715036392212
-0.2494092583656311 -0.08443847298622131 -0.3155134618282318
0.5402770042419434 -0.014376552775502205 0.0023502407129853964
0.02263672649860382 -0.011195122264325619 -0.29337266087532043
0.18523931503295898 -0.020977964624762535 0.23434780538082123
-0.49552246928215027 0.04293780028820038 0.05168720707297325
0.17227423191070557 -0.05237308144569397 -0.23005132377147675
0.3797647953033447 -0.13971209526062012 -0.19853459298610687
-0.24990245699882507 -0.040487274527549744 -0.01538890227675438
0.2203540802001953 -0.017398960888385773 0.3405189514160156
0.2629956007003784 -0.15707767009735107 -0.5259965658187866
0.3209301233291626 0.043582454323768616 -0.18377310037612915
-0.20685908198356628 0.033809974789619446 -0.0682673379778862
0.09466336667537689 -0.01684320904314518 -0.5174013376235962
0.0887066125869751 -0.012750249356031418 0.25778231024742126
0.7076253294944763 -0.059327028691768646 -0.08633174002170563
0.38562384247779846 -0.051671650260686874 -0.009950554929673672
0.007654374465346336 -0.006884087808430195 -0.09111549705266953
0.2372061014175415 0.03087295964360237 -0.30125123262405396
0.34123072028160095 -0.0016334031242877245 -0.06801268458366394
0.14079232513904572 -0.10686402022838593 -0.2879526913166046
0.21480442583560944 0.0929969847202301 -0.05198260024189949
0.7445816397666931 -0.004322377499192953 -0.10325977206230164
0.009451445192098618 -0.034845080226659775 0.9320860505104065
0.3288111090660095 -0.07224658876657486 -1.0
0.3534013032913208 0.11917039752006531 -0.17967526614665985
0.2699476480484009 0.05570824444293976 -0.36522626876831055
0.15561190247535706 0.04789940267801285 0.327996164560318
-0.1516784280538559 0.030549177899956703 -0.7362773418426514
0.3524112105369568 -0.01061639841645956 0.9278154969215393
-0.02747642807662487 -0.049248844385147095 0.6187848448753357
0.3099119961261749 -0.044002555310726166 -0.6913449764251709
-0.048183538019657135 -0.11777621507644653 -0.19109122455120087
0.31233587861061096 0.05886510759592056 -0.052836544811725616
-0.6467929482460022 0.1777873933315277 0.15295343101024628
0.08656883984804153 -0.178800567984581 0.3474597930908203
0.2084728479385376 -0.1797468662261963 -1.0
0.3181559443473816 0.01211224403232336 -0.6684859991073608
-0.03633248060941696 -0.02674364298582077 0.028967175632715225
-0.5656833648681641 0.034369710832834244 0.07057125121355057
0.08269520848989487 0.005643209908157587 0.014581450261175632
0.1496082842350006 -0.09387943148612976 -0.1385565996170044
0.4407198131084442 -0.02946796640753746 0.07693945616483688
-0.3296460509300232 0.004371984861791134 0.029241178184747696
-0.8014634847640991 0.1640731543302536 -0.07314511388540268
-0.08004499971866608 -0.049849528819322586 0.6376610994338989
0.53461754322052 -0.11361439526081085 0.6010369658470154
-0.4046403169631958 0.05827558413147926 0.027088142931461334
0.3482127785682678 -0.054991237819194794 0.38975775241851807
0.2630952000617981 -0.02637658081948757 0.05539999157190323
0.23848570883274078 -0.046009793877601624 0.8348254561424255
-0.6323734521865845 0.017632463946938515 -0.07903467118740082
0.4317183792591095 -0.10092421621084213 -0.7290646433830261
0.12933261692523956 -0.0641390010714531 -0.1528927981853485
0.1565142571926117 -0.007625974714756012 0.17617617547512054
0.07119081169366837 0.06686034053564072 0.9986885190010071
-0.06545309722423553 -0.07894967496395111 -0.38025280833244324
0.02100527286529541 -0.03878572955727577 -0.6533830761909485
-0.32993587851524353 0.05927404761314392 0.0012095271376892924
0.9261371493339539 -0.017745671793818474 0.07782549411058426
-0.5462942123413086 0.16940799355506897 -0.029872726649045944
-0.22412775456905365 -0.014862190932035446 -0.03879610821604729
-0.3700054883956909 -0.00034846991184167564 0.024732502177357674
-0.8668605089187622 0.11805300414562225 0.01679900661110878
-0.1872849464416504 -0.0313032902777195 -0.11539008468389511
0.29938051104545593 0.02154640294611454 0.013288281857967377
-0.5260957479476929 0.10185244679450989 -0.01443105936050415
-0.5133682489395142 0.15641245245933533 -0.022750798612833023
0.09843761473894119 -0.06042332947254181 -0.048971667885780334
0.30803531408309937 0.06036039814352989 0.21299594640731812
0.13238544762134552 -0.12971070408821106 0.10092680156230927
0.6549854874610901 -0.050149302929639816 0.011828974820673466
0.34569138288497925 -0.05736938491463661 -0.3051283359527588
-0.8059255480766296 0.16148702800273895 0.31371015310287476
0.6033897399902344 -0.16694295406341553 -0.11405717581510544
0.05265700817108154 -0.04158945754170418 0.04794200882315636
0.20692160725593567 -0.04068377986550331 0.2795534133911133
-0.5449761748313904 0.01826053112745285 0.07224756479263306
0.1316857635974884 0.036034878343343735 0.07401798665523529
0.4780479669570923 0.02727876789867878 -0.9880072474479675
-0.18437188863754272 0.06453343480825424 0.02417568862438202
0.2986166179180145 -0.15768568217754364 -0.39463579654693604
-0.37503281235694885 0.08899559080600739 0.07535278797149658
0.027171948924660683 0.02904144860804081 0.2850002646446228
0.07362613081932068 -0.10709835588932037 -0.17339643836021423
0.13877291977405548 -0.04805427044630051 0.35467055439949036
-0.6757811903953552 -0.025874996557831764 -0.09995248913764954
0.4500393569469452 0.06796791404485703 -0.08408691734075546
-0.20886576175689697 -0.07094041258096695 0.7762352228164673
-0.11132428050041199 -0.01884189248085022 0.025077758356928825
-0.18762889504432678 -0.04093891754746437 -0.5106424689292908
-0.43206605315208435 -0.03911450132727623 -0.008671386167407036
0.31767651438713074 -0.01073711272329092 0.2503274381160736
0.09164424240589142 -0.04207116365432739 0.15079323947429657
0.34418800473213196 -0.06754253804683685 -0.029224343597888947
0.5528762936592102 -0.016094109043478966 0.016386810690164566
0.08904752135276794 0.0060692885890603065 -0.038758520036935806
-0.6543290615081787 0.3894162178039551 0.014256792142987251
0.4287191927433014 -0.07106561958789825 0.3336212635040283
-0.10300032049417496 0.04982580244541168 0.9990914463996887
0.05177909880876541 -0.003889423795044422 0.44922080636024475
0.5365180373191833 0.04879914969205856 0.03268793597817421
-0.5620284676551819 -0.004160859156399965 -0.007933841086924076
-0.08118689805269241 0.0015886066248640418 0.6154994368553162
-0.6410354971885681 -0.07931185513734818 -0.00315283820964396
-0.1703331619501114 0.02491329237818718 -0.016105789691209793
0.24750618636608124 -0.11978009343147278 -0.7611393928527832
0.40208911895751953 -0.017574656754732132 1.0
0.05706917494535446 -0.020173680037260056 -0.5668896436691284
-0.6437380313873291 0.012349361553788185 0.18578262627124786
0.6356706619262695 -0.12498343735933304 0.08948938548564911
0.3522031903266907 -0.1576099544763565 -1.0
-0.0016462728381156921 0.0922851637005806 0.4270908236503601
0.25864481925964355 -0.003916187211871147 0.006117990240454674
0.898704469203949 -0.05305606871843338 0.08090293407440186
0.3757348358631134 -0.009699647314846516 -0.2455650120973587
-0.673599123954773 0.05944493040442467 -0.0020174430683255196
0.2735903859138489 -0.12970365583896637 -0.17797145247459412
-0.3383326828479767 0.04435319826006889 -0.0319492444396019
0.2210778445005417 -0.08805996924638748 -0.27996546030044556
0.20470595359802246 -0.0592828132212162 -0.4955926537513733
0.4278157651424408 -0.039906036108732224 -0.1394364833831787
0.11699070781469345 -0.0534495934844017 -0.42929592728614807
-0.08437878638505936 -0.025726869702339172 0.9844043254852295
-0.8224771618843079 0.16625909507274628 0.02731233648955822
0.054968345910310745 -0.042385298758745193 -0.07439005374908447
0.2316594272851944 0.04449932277202606 -0.9896759390830994
-0.4852551519870758 0.10943419486284256 -0.13901656866073608
0.17415817081928253 -0.11310609430074692 -0.03228767216205597
0.37580862641334534 -0.049600351601839066 0.9609887003898621
-0.8381869196891785 0.08186636120080948 0.11424769461154938
0.07061555236577988 0.07723801583051682 0.9953914880752563
0.008611424826085567 -0.005212225951254368 -0.058818042278289795
0.1296260505914688 -0.06037723645567894 0.004081571940332651
-0.7252355813980103 0.06948599219322205 -0.031242432072758675
-0.47802790999412537 0.006778073031455278 0.013111275620758533
0.30587807297706604 -0.055680979043245316 0.44535890221595764
0.7905653715133667 0.0034685467835515738 -0.01499374769628048
0.2060931771993637 0.07580361515283585 0.5860252380371094
-0.3700104355812073 0.023633597418665886 0.01587175950407982
0.5664157271385193 -0.06476066261529922 -0.04747661575675011
0.2198859602212906 -0.02314857579767704 -0.15738533437252045
0.2683778405189514 -0.013566327281296253 -0.07080177962779999
-0.3748815059661865 0.0905817523598671 -0.030469350516796112
0.11516685783863068 0.023902256041765213 0.08939183503389359
0.4332772493362427 -0.06095504015684128 0.005780254025012255
0.5210298299789429 -0.06432318687438965 0.9751786589622498
-0.00815858505666256 0.025706278160214424 0.7704333066940308
0.22469168901443481 -0.027192670851945877 -0.34214314818382263
0.8232081532478333 -0.12232606112957001 0.0004311546217650175
0.37677329778671265 0.09806607663631439 -1.0
-0.06235779449343681 -0.03472818806767464 0.3682992458343506
0.635428786277771 -0.01182794664055109 0.32856613397598267
0.32335466146469116 0.003958943299949169 -0.054768793284893036
0.18493527173995972 0.008771337568759918 -0.06385639309883118
0.12086594104766846 -0.043340038508176804 -0.34102538228034973
0.14660806953907013 -0.034058474004268646 -0.10799941420555115
0.1117696687579155 -0.05174081772565842 0.5210962295532227
0.19772355258464813 -0.1083601862192154 0.4619024395942688
0.2219683825969696 -0.0753137394785881 -0.6406827569007874
0.04442606493830681 -0.19542483985424042 -0.2419832944869995
0.3132576048374176 -0.1286521553993225 -0.011923495680093765
-0.525512158870697 0.18786749243736267 0.04616250842809677
0.09653382003307343 0.020118895918130875 0.3998998999595642
-0.6863999366760254 0.21317052841186523 -0.0022561100777238607
0.28747087717056274 -0.12711136043071747 -0.0011730010155588388
-0.641748309135437 0.12678557634353638 -0.017158791422843933
0.027307994663715363 -0.0669078603386879 0.4468405544757843
0.3264937102794647 -0.0353415347635746 -0.007624434307217598
0.05788304656744003 -0.10573015362024307 0.1337791383266449
0.301816463470459 -0.02459833025932312 0.6676438450813293
0.6136727333068848 0.05247768759727478 -0.031871818006038666
0.808532178401947 0.03271294757723808 0.08614318817853928
0.3277297616004944 0.061520349234342575 -0.16503997147083282
0.18535767495632172 -0.059828296303749084 -0.3472408354282379
-0.6412818431854248 0.0169998686760664 0.11720101535320282
-0.00626042066141963 0.06125479191541672 -1.0
0.04453384503722191 -0.0369584821164608 0.052023276686668396
0.20579290390014648 0.01680820621550083 0.0969163328409195
-0.7323803901672363 0.05711841583251953 0.032059282064437866
0.3287184238433838 -0.05996209755539894 -0.48856064677238464
-0.044248733669519424 0.010789424180984497 -0.059678953140974045
-0.4566866159439087 0.06738780438899994 -0.010294463485479355
-0.1790434569120407 0.038939181715250015 -0.8513025045394897
-0.05436994880437851 -0.012343420647084713 -0.6646688580513
-0.3137080669403076 0.07169552892446518 -0.06305835396051407
0.2579546570777893 -0.02600967325270176 0.01649687997996807
-0.3579363226890564 -0.043542735278606415 0.9916530847549438
-0.6664132475852966 0.18826888501644135 0.028658023104071617
-0.4950999319553375 -0.04252704232931137 -0.032696906477212906
-0.6357539296150208 0.013234332203865051 0.004126775544136763
-0.012765917927026749 -0.016274049878120422 -0.4305165410041809
-0.12290727347135544 -0.04937953129410744 -0.50804203748703
-0.7580934762954712 0.10173102468252182 -0.010897455736994743
0.09357405453920364 -0.06054970622062683 -0.1551896333694458
0.5860307812690735 0.035197917371988297 0.004319228231906891
-0.47822871804237366 -0.02239985018968582 -0.02366761863231659
0.251018762588501 -0.003568635554984212 -0.042740777134895325
-0.1917392462491989 0.0011908557498827577 0.3370874524116516
0.2790054380893707 0.06127388775348663 0.23748576641082764
-0.031202688813209534 -0.06827178597450256 -0.35364875197410583
-0.1262846291065216 0.04620563983917236 0.013353744521737099
0.3135410249233246 -0.14350523054599762 0.6217718124389648
0.16982948780059814 -0.030292224138975143 -0.7911399006843567
0.21228116750717163 -0.08811391144990921 0.5169729590415955
-0.7666184902191162 0.28278473019599915 -0.004134096670895815
0.4097963571548462 -0.03485274314880371 0.1037418320775032
0.2282465547323227 -0.10938072949647903 -0.9640333652496338
0.11633159220218658 -0.0800451934337616 -0.1052410900592804
0.24763494729995728 -0.14790864288806915 -0.11137696355581284
0.13774017989635468 0.011539062485098839 0.044171132147312164
0.2601277828216553 -0.07947151362895966 0.18224649131298065
0.29620495438575745 -0.11942341178655624 0.2794714868068695
-0.672743022441864 0.22852756083011627 0.04422317445278168
0.34375157952308655 -0.22321833670139313 0.25389084219932556
0.07951879501342773 -0.049666356295347214 0.5510485172271729
-0.6798321008682251 0.09556315839290619 0.06699594855308533
0.11894915997982025 0.08732546865940094 -0.4582803547382355
0.5024170279502869 -0.09290821105241776 -0.5518955588340759
-0.18737484514713287 0.030448991805315018 0.9897239208221436
0.6011578440666199 0.024749884381890297 -0.09132843464612961
-0.02758834883570671 -0.025654226541519165 0.007172838319092989
-0.26478204131126404 -0.03303825482726097 1.0
0.10427957028150558 -0.12231597304344177 -0.3631492555141449
0.22070011496543884 -0.20511291921138763 0.10759089887142181
-0.22747623920440674 -0.009554795920848846 -0.02567792870104313
0.727868378162384 -0.04552074894309044 0.04332507401704788
0.38905757665634155 0.048192236572504044 -0.7190883159637451
0.1399209350347519 -0.031131766736507416 0.13261127471923828
0.11071834713220596 -0.04535029083490372 -0.4933087229728699
0.16455045342445374 0.1043219193816185 -0.9920164346694946
0.27026045322418213 -0.08485468477010727 -0.4078495502471924
1.0 -0.08713088184595108 0.03319477662444115
0.16118916869163513 0.00041381665505468845 0.07433054596185684
0.33659863471984863 -0.1091778427362442 -0.037896778434515
0.695661187171936 -0.012970984913408756 0.003134021069854498
0.43058905005455017 -0.0878443643450737 -0.08282794058322906
0.43548619747161865 -0.063387930393219 -0.40201207995414734
0.3556942343711853 0.11182329058647156 0.7015984654426575
0.48564815521240234 0.03494423255324364 -0.10835642367601395
0.37526431679725647 -0.06917472183704376 0.9464229941368103
0.8606017231941223 0.018076656386256218 -0.030946927145123482
0.18581050634384155 -0.055732063949108124 0.13576185703277588
0.014063368551433086 0.02423425205051899 -0.6413259506225586
0.2042592614889145 -0.08107758313417435 -0.3143205940723419
-0.7406986951828003 0.16580529510974884 0.12061470746994019
0.8932900428771973 -0.06191963329911232 -0.07061692327260971
-0.030270999297499657 -0.00883517600595951 0.5489897131919861
-0.6665319800376892 0.18852701783180237 0.04285570606589317
-0.6320332288742065 0.048216767609119415 -0.06731301546096802
0.1628250926733017 0.0424167737364769 0.40077996253967285
0.027151701971888542 0.0875011533498764 0.46949416399002075
0.03224552795290947 0.1087346002459526 0.025716157630085945
0.45138996839523315 0.15621939301490784 -0.9963042140007019
0.900633692741394 -0.010084622539579868 -0.08895253390073776
0.006239470560103655 -0.017513878643512726 0.14627838134765625
-0.5290797352790833 0.10835012048482895 -0.05769871920347214
0.2723924517631531 -0.19761933386325836 0.1963498294353485
-0.12605996429920197 -0.06351622939109802 0.4178712069988251
0.14081932604312897 -0.01611403189599514 -0.10429642349481583
-0.1671648621559143 0.051345452666282654 -0.48900994658470154
-0.17779722809791565 0.049951549619436264 0.18187059462070465
0.0583946593105793 -0.07424134016036987 0.18950095772743225
-0.7888337969779968 0.28221291303634644 0.12733730673789978
-0.32937192916870117 0.010415582917630672 -0.10879713296890259
-0.06618525087833405 -0.035697270184755325 0.6899116039276123
0.10282713919878006 -0.074661023914814 0.17513471841812134
-0.23588858544826508 -0.0812440738081932 0.5170714855194092
-0.03711095079779625 -0.09266934543848038 0.47457993030548096
-0.5789306163787842 0.21413066983222961 -0.028613418340682983
-0.08318083733320236 -0.019375314936041832 -0.17474225163459778
0.0927608460187912 -0.11213156580924988 -0.04883653670549393
0.5579034686088562 0.0038645602762699127 0.045880530029535294
0.20157849788665771 0.028908198699355125 0.37799710035324097
0.37746313214302063 -0.014324065297842026 -0.09447254240512848
0.028368355706334114 -0.01525387167930603 0.24404095113277435
0.0485980398952961 0.07094159722328186 0.013892187736928463
-0.019769230857491493 -0.16564348340034485 -0.22022393345832825
0.07862505316734314 0.06384831666946411 0.3128557503223419
0.06883103400468826 -0.09041214734315872 0.3897942900657654
0.06804504245519638 0.002895437180995941 -0.24206361174583435
0.08101075142621994 -0.04661250114440918 0.19295333325862885
0.2210085541009903 -0.054711565375328064 0.615607500076294
0.2282562106847763 -0.02735189162194729 0.11076371371746063
-0.6282868385314941 0.10368964821100235 -0.041395366191864014
0.3616078495979309 -0.04957534000277519 0.01969831995666027
0.2801657021045685 -0.062310751527547836 -0.01913689821958542
-0.5439602732658386 0.05216709151864052 0.08137913048267365
-0.6128089427947998 0.03484809771180153 -0.07717493176460266
0.31780359148979187 -0.09086859226226807 0.36160513758659363
-0.06636273860931396 -0.021452486515045166 0.1361175775527954
0.18405577540397644 0.009848421439528465 0.1319376826286316
-0.6608518362045288 0.13130123913288116 0.006372151430696249
0.19673994183540344 -0.0729018822312355 0.008365118876099586
-0.12339184433221817 -0.048202067613601685 0.802269697189331
0.313517302274704 0.03707636520266533 0.9871600866317749
0.29118213057518005 -0.1144234836101532 0.021525826305150986
0.42759308218955994 -0.038526762276887894 0.022103961557149887
0.5525899529457092 -0.009357861243188381 -0.3284880518913269
0.41596975922584534 0.06950115412473679 0.001539967255666852
0.16155695915222168 -0.052824318408966064 0.5246216654777527
-0.565794825553894 0.11645738035440445 0.045839350670576096
-0.667165994644165 0.10834888368844986 0.08302195370197296
0.39020124077796936 -0.050685543566942215 -0.24029815196990967
-0.06206919997930527 -0.050344742834568024 0.9951918721199036
0.15880869328975677 -0.0952773317694664 0.01516338624060154
-0.3546484112739563 0.05896081030368805 0.0229883324354887
-0.5196120142936707 0.09751416742801666 0.0009253033204004169
-0.016359999775886536 -0.07851697504520416 -0.13593995571136475
-0.16643880307674408 0.07228228449821472 0.05568569526076317
-0.6725593209266663 0.11426573991775513 -0.06687680631875992
-0.12075797468423843 -0.013942277058959007 -0.04086264595389366
0.28986307978630066 0.00932274293154478 0.5776293277740479
-0.7444695234298706 0.05794601887464523 -0.046034108847379684
0.2470545470714569 -0.16010205447673798 0.0648081824183464
0.00543213402852416 -0.0007708187913522124 0.6623242497444153
-0.5637130737304688 0.13116255402565002 -0.03522944822907448
0.5066332817077637 0.012348231859505177 0.4931831657886505
-0.5896458625793457 0.028665151447057724 0.06115182861685753
0.17890799045562744 -0.05320994555950165 -0.21160800755023956
-0.22279156744480133 0.08080678433179855 -1.0
0.07637691497802734 -0.046281326562166214 -0.0034628405701369047
-0.026990490034222603 -0.09555107355117798 0.1267043948173523
0.13596007227897644 0.014147973619401455 -0.5688264966011047
-0.03856286779046059 -0.027585433796048164 1.0
0.013676760718226433 -0.09657077491283417 0.9822782278060913
0.0030934514943510294 -0.015850422903895378 -0.4689159393310547
-0.5161616802215576 0.06287791579961777 -0.06141064316034317
0.8589215278625488 0.08670548349618912 0.014182863757014275
0.0842919871211052 -0.05800958722829819 0.3893738389015198
0.0536150261759758 0.021818380802869797 -0.39140284061431885
0.5942415595054626 -0.05560385063290596 -0.03555094823241234
0.16007332503795624 0.05708872899413109 -0.06728719174861908
0.09962940961122513 -0.0011263261549174786 -0.8851491808891296
-0.657235324382782 -0.02713303454220295 -0.17201437056064606
0.34536418318748474 -0.048065390437841415 0.465003103017807
0.11932028830051422 0.10453812032938004 -0.5341206192970276
-0.17791573703289032 -0.012632734142243862 0.009360418654978275
-0.45856016874313354 -0.028062663972377777 0.05824395641684532
-0.24838165938854218 -0.03932616487145424 0.8273391723632812
-0.17318962514400482 0.020211458206176758 1.0
-0.7077636122703552 0.08027343451976776 -0.17678362131118774
0.1031162366271019 -0.0594450980424881 0.019585270434617996
0.3464849889278412 -0.14180058240890503 -0.052578721195459366
0.11926928162574768 -0.07645801454782486 -0.18692344427108765
0.6018937230110168 -0.04780159890651703 -0.11454258859157562
0.30513596534729004 -0.10216640681028366 -0.2523104250431061
-0.06801655888557434 -0.06454555690288544 -0.08603107184171677
0.024369657039642334 0.08437182009220123 -0.30608147382736206
0.6165140271186829 -0.04928458854556084 0.07159499078989029
0.25808092951774597 -0.021076956763863564 -0.18633954226970673
-0.753077507019043 0.2632286548614502 0.05329480767250061
0.07620406150817871 0.09224872291088104 0.6390869617462158
0.41742709279060364 0.07642795145511627 0.04230542480945587
-0.6392662525177002 0.04320621117949486 -0.049175988882780075
-0.16722165048122406 0.06417742371559143 0.5708106160163879
0.15107448399066925 -0.1148650199174881 0.07211704552173615
0.6630672216415405 -0.060703717172145844 0.12775684893131256
0.12994401156902313 -0.120829738676548 -0.1616182178258896
0.4505654275417328 -0.07499222457408905 0.139221653342247
0.41966044902801514 0.11106850951910019 -0.8217505216598511
0.7424629330635071 -0.048730216920375824 0.09013570100069046
0.6067655086517334 0.1499188393354416 -0.046703506261110306
0.470397412776947 -0.07806812226772308 -0.8429200649261475
-0.10707680881023407 0.0062999725341796875 0.625863254070282
0.4992562234401703 -0.01084189023822546 -0.36648449301719666
-0.3477028012275696 0.0225721076130867 -0.10622930526733398
0.2608453035354614 0.018154455348849297 0.09302008152008057
0.432094544172287 -0.03161068260669708 -0.41362881660461426
-0.7505964636802673 0.20901864767074585 0.016707317903637886
0.21422648429870605 -0.0669846311211586 0.5953306555747986
0.22197146713733673 0.019414333626627922 0.10903481394052505
0.008583640679717064 0.19497078657150269 1.0
-0.08034735918045044 -0.0070509109646081924 -0.2946910858154297
0.026691682636737823 0.07518882304430008 -0.005116860382258892
-0.0845506563782692 0.008143085986375809 -0.4319886863231659
0.6935383677482605 0.0346575491130352 0.023441534489393234
0.2258441150188446 -0.060919389128685 0.25065961480140686
-0.6143617033958435 -0.006567417178303003 -0.04876226186752319
0.2975212335586548 -0.04489991441369057 -0.03422374278306961
0.3340829014778137 -0.11141230165958405 -0.0685679018497467
0.7973341941833496 -0.08561292290687561 -0.02628389745950699
-0.032829124480485916 -0.07802420109510422 -0.06432753801345825
0.20044785737991333 -0.06363002210855484 0.3546115756034851
-0.4577783942222595 0.052075423300266266 -0.03808131068944931
0.01885443925857544 -0.05295775830745697 -0.7839258313179016
0.14329558610916138 -0.12357251346111298 -0.40684419870376587
0.0714234933257103 -0.11497107893228531 -0.3317258358001709
0.2749480605125427 -0.08850467950105667 0.39003288745880127
0.18265266716480255 -0.11407266557216644 -0.5653820037841797
0.15397153794765472 0.03373851254582405 0.017489999532699585
-0.12176148593425751 -0.12182475626468658 -0.25710558891296387
-0.06900124996900558 0.027870599180459976 0.41484665870666504
0.048236437141895294 0.05270414426922798 -0.31445223093032837
-0.019360288977622986 -0.12093943357467651 0.18955403566360474
0.028856471180915833 -0.09157578647136688 0.564289391040802
0.3033082187175751 0.020920559763908386 -0.3377804756164551
-0.6606749892234802 0.04874889552593231 -0.0631263330578804
0.17438191175460815 -0.021455934271216393 0.34093278646469116
0.4723438620567322 -0.10568644106388092 -0.09378693997859955
-0.8449819087982178 0.39156603813171387 -0.01952132023870945
-0.7436127662658691 0.114748515188694 -0.007384112570434809
-0.11720718443393707 -0.09084481745958328 0.34118029475212097
0.2005392611026764 0.02864769473671913 -0.2641682028770447
-0.5496811270713806 0.03680801019072533 0.1269608736038208
0.0721234381198883 0.013427358120679855 0.9947723746299744
0.2083509862422943 0.010886144824326038 -0.10994937270879745
-0.600193202495575 0.09660189598798752 -0.05593596771359444
0.1185007318854332 -0.09858520328998566 -0.5031040906906128
-0.8800729513168335 0.18424615263938904 0.1883765012025833
0.2539234459400177 0.015057689510285854 -0.050060074776411057
0.46907904744148254 0.06719759851694107 0.11571263521909714
0.7234894037246704 0.03157375380396843 0.009999332018196583
0.13050948083400726 -0.08179198205471039 0.3634272515773773
-0.7934413552284241 0.3650842308998108 0.04182226583361626
0.20138797163963318 -0.003301480086520314 -0.22921758890151978
-0.07851666212081909 -0.010033183731138706 -0.21144327521324158
-0.03108556941151619 -0.045122742652893066 -0.15204022824764252
0.03886718675494194 0.02754110097885132 -0.19514591991901398
0.20210827887058258 -0.08533819764852524 -0.03223305195569992
0.29265937209129333 -0.15051360428333282 -0.060072269290685654
-0.0037753127980977297 0.017857791855931282 -0.17538201808929443
0.22559157013893127 -0.1527094691991806 -0.560470461845398
-0.7757241725921631 0.13946688175201416 0.0003620463830884546
0.9187843203544617 -0.11725050210952759 0.11980418115854263
0.0701637789607048 -0.1723049432039261 0.42053860425949097
0.16185759007930756 -0.15724243223667145 0.9948931336402893
0.27630966901779175 0.020740250125527382 0.24023842811584473
-0.7661006450653076 0.16422976553440094 0.30089062452316284
0.04041460528969765 -0.03391701355576515 -0.12234583497047424
-0.01039155200123787 -0.10977223515510559 -0.6532060503959656
0.2623901665210724 0.00992055144160986 0.5351748466491699
0.10796940326690674 -0.12113555520772934 0.40923285484313965
0.02619217336177826 -0.02429458498954773 0.31849467754364014
-0.1373744159936905 0.02160452865064144 0.06370890885591507
-0.16785089671611786 -0.01309454720467329 -0.009157463908195496
-0.7594579458236694 0.4290528893470764 0.01778235472738743
-0.03939736634492874 0.012395258992910385 -0.7516481876373291
0.5137572288513184 0.033861108124256134 -0.08598874509334564
0.15281793475151062 -0.052183039486408234 -0.2128201276063919
0.2483115941286087 -0.2297993004322052 -0.1927376687526703
-0.5923674702644348 0.05269476771354675 -0.0004997272044420242
0.25824642181396484 -0.21383723616600037 0.48765677213668823
-0.08913217484951019 -0.062064338475465775 -0.6637699007987976
0.3412170112133026 -0.2070617526769638 0.2918546199798584
0.5005967020988464 -0.02833002619445324 0.008516345173120499
0.16159749031066895 -0.05312615633010864 -0.20012854039669037
0.22348690032958984 -0.008006535470485687 0.010487761348485947
-0.30345040559768677 -0.0010016487212851644 0.5890918374061584
-0.7185049653053284 0.2566194534301758 -0.11728485673666
0.015543610788881779 0.09680540859699249 0.4342755079269409
0.12624706327915192 -0.08253465592861176 0.6561908721923828
0.09154344350099564 -0.025392981246113777 0.07841747999191284
0.11874224990606308 -0.05709510296583176 -0.18830972909927368
-0.45177266001701355 0.05966466665267944 0.07765795290470123
0.8792855143547058 -0.07112425565719604 -0.07933202385902405
-0.14719411730766296 -0.0983804315328598 0.3468768298625946
0.24773263931274414 -0.0028452849946916103 0.37306708097457886
-0.02275969833135605 0.12579670548439026 0.9908287525177002
0.19675575196743011 -0.11409404873847961 -0.49420374631881714
0.39945611357688904 -0.039148516952991486 -0.33907315135002136
0.06548403948545456 -0.049102503806352615 -0.5049178004264832
0.21362516283988953 0.037296783179044724 -0.45654675364494324
-0.13119952380657196 0.005608705338090658 0.21898648142814636
-0.6367451548576355 0.12282337993383408 0.04974280670285225
0.36028769612312317 0.07676956057548523 0.006924268323928118
-0.015258261933922768 -0.008783492259681225 0.24172145128250122
-0.20281361043453217 -0.046392444521188736 -0.335323691368103
0.19352278113365173 -0.05848570540547371 0.5796653628349304
-0.6034955978393555 0.009254906326532364 0.0030650536064058542
-0.7791247963905334 0.059760961681604385 0.11105944216251373
0.9299454689025879 0.013531940057873726 0.07731282711029053
-0.586254894733429 0.05997275188565254 0.03348742797970772
0.3089839816093445 0.12846516072750092 0.6530416011810303
-0.0019265854498371482 0.1878916621208191 1.0
0.1766238510608673 0.05209536477923393 -0.07979676872491837
-0.009352713823318481 -0.04277860000729561 -0.8873541355133057
0.2869124710559845 0.10425495356321335 0.11562857031822205
0.11025924980640411 -0.11555531620979309 -0.9280825853347778
0.7988939881324768 -0.0075950645841658115 -0.025887032970786095
0.0681503489613533 -0.10156802088022232 -0.009128959849476814
0.1538788229227066 0.07848364114761353 0.16449375450611115
0.15101730823516846 0.07200908660888672 -0.8588339686393738
0.5905613303184509 -0.04200713708996773 0.18122750520706177
0.025730403140187263 -0.014240147545933723 -0.3343374729156494
0.015390918590128422 0.007492975331842899 -0.291087806224823
0.21974261105060577 0.02960066869854927 -0.3085363805294037
-0.0684603601694107 0.03695979341864586 -0.8988144397735596
-0.6506687998771667 0.18765568733215332 -0.09911007434129715
-0.017419490963220596 0.01401890255510807 -0.05873547121882439
-0.7836400866508484 0.36199018359184265 0.04178512468934059
0.3582926392555237 -0.08918353170156479 0.35103896260261536
0.2966782748699188 -0.11385705322027206 -0.22361069917678833
0.06718064844608307 -0.04476403445005417 0.47682321071624756
0.45020079612731934 0.015065962448716164 -0.00857463851571083
-0.01249291468411684 0.046152014285326004 -0.6228326559066772
0.1722620725631714 0.06833164393901825 0.6094204187393188
0.02041659876704216 0.04348430782556534 0.10661512613296509
0.11938006430864334 0.09997016936540604 0.9847312569618225
-0.12727458775043488 -0.025948092341423035 0.09213759750127792
0.2689554989337921 -0.07855743169784546 -0.11855661869049072
-0.7939543724060059 0.22855144739151 0.06472037732601166
-0.09026741236448288 -0.03697536885738373 0.7198851704597473
0.6305099725723267 -0.038845162838697433 0.004327123519033194
0.4827900528907776 0.030208665877580643 0.0039816140197217464
-0.5306766033172607 0.06703341007232666 0.024785589426755905
-0.47049447894096375 0.1238505020737648 -0.009541885927319527
-0.06846533715724945 -0.0354129783809185 0.10229955613613129
-0.019642110913991928 0.012377321720123291 -0.17831337451934814
0.8153132200241089 -0.04436643049120903 -0.01632334664463997
0.6142451167106628 0.05928925797343254 -0.006197464186698198
-0.170338973402977 0.05524531006813049 0.4248741567134857
-0.07162800431251526 -0.06464789807796478 -0.46675798296928406
-0.11956319212913513 -0.0282222181558609 -0.21136875450611115
0.22252459824085236 -0.04409119486808777 -0.7703942656517029
-0.0690276101231575 -0.07218042761087418 -0.0597468726336956
-0.30088406801223755 0.008097571320831776 -0.11106128990650177
-0.6050326228141785 0.261589378118515 0.05331326276063919
0.17986300587654114 0.004713531117886305 1.0
0.30062252283096313 -0.003226167056709528 -0.5049486756324768
0.03477500379085541 -0.06723006814718246 -0.02117929235100746
0.39530715346336365 -0.068710558116436 -0.20728632807731628
0.7417376041412354 0.003568681189790368 0.04640736058354378
0.19268223643302917 0.0019286457682028413 0.19498507678508759
0.03280651196837425 0.012136027216911316 0.10204029083251953
0.09809601306915283 -0.08150197565555573 -0.07929079234600067
-0.3942119777202606 0.027260439470410347 -0.04600999504327774
0.280855268239975 -0.1749177873134613 -0.49675601720809937
0.19072048366069794 -0.0527801588177681 0.05896255373954773
-0.22642087936401367 -0.09567265212535858 0.4934304356575012
-0.012151965871453285 0.013700135052204132 0.09505646675825119
-0.6410930156707764 0.2885401248931885 -0.021797258406877518
0.00019168299331795424 0.0023719514720141888 -0.08955057710409164
0.1783699095249176 -0.09302917867898941 0.5278980135917664
0.2809511721134186 -0.12375900149345398 0.19056370854377747
0.010542187839746475 0.030708804726600647 0.47317782044410706
0.16083697974681854 0.09984857589006424 0.6934056878089905
-0.4715859293937683 0.08973198384046555 0.04089111462235451
0.221639946103096 -0.05534476041793823 -0.12955941259860992
-0.038207028061151505 0.0368097759783268 -1.0
-0.5550053715705872 0.0943538099527359 -0.004270879086107016
0.011759134940803051 -0.09178245812654495 0.13728857040405273
-0.5179752707481384 -0.004345536697655916 0.09569629281759262
0.14727477729320526 0.03949541971087456 0.341251015663147
0.05350349843502045 0.08767524361610413 -0.2924593985080719
0.24571387469768524 -0.02435724250972271 -0.30745676159858704
-0.006013255100697279 -0.010211546905338764 0.04082120209932327
0.000942401064094156 0.01481618732213974 -0.3246481120586395
0.6412769556045532 0.06856469064950943 0.019848311319947243
0.3435373306274414 0.09840857982635498 -0.13978339731693268
0.10565906763076782 0.029894918203353882 0.9574915766716003
0.22767677903175354 -0.08684075623750687 0.0911681056022644
0.5122430324554443 0.04260413721203804 -0.10873348265886307
0.2604255974292755 -0.0048547894693911076 -0.10657143592834473
2.293135730724316e-05 -0.1094314232468605 -0.05354592576622963
0.0989755168557167 0.07146598398685455 0.23519305884838104
0.48173561692237854 -0.10799717158079147 -0.15028463304042816
0.33401137590408325 0.15700958669185638 -0.9820728898048401
0.6441015601158142 -0.0294980276376009 -0.790880560874939
0.8417438268661499 0.0417248010635376 -0.14785678684711456
-0.18423159420490265 -0.05285779759287834 -0.20373821258544922
0.7513761520385742 -0.14142222702503204 -0.13054394721984863
0.3311727046966553 -0.06515444070100784 -0.6414925456047058
-0.35696640610694885 0.005593970883637667 0.016547562554478645
-0.18386320769786835 -0.12329250574111938 -1.0
0.05942906066775322 -0.11815983057022095 0.22124692797660828
0.3259935677051544 -0.04491281136870384 -0.3759480118751526
0.5231470465660095 -0.00424201600253582 -0.10502403229475021
0.25373169779777527 -0.07969454675912857 0.06686393916606903
0.3717193305492401 -0.03610869497060776 -0.8463870286941528
-0.1922592967748642 0.06944255530834198 -0.6707904934883118
0.38138601183891296 -0.05489758774638176 0.016274869441986084
-0.32669365406036377 0.03976273164153099 -0.06716227531433105
-0.05057816207408905 -0.06292856484651566 0.07591070979833603
0.026213081553578377 -0.041029468178749084 0.015714311972260475
0.06391455978155136 -0.0708882212638855 -0.21193476021289825
-0.7039808034896851 0.14560219645500183 0.18705403804779053
-0.6381378769874573 0.05902564153075218 -0.05012475326657295
-0.052915532141923904 0.035793062299489975 0.5255979895591736
0.12711843848228455 -0.12324988096952438 0.4967888295650482
-0.2702854871749878 0.03672640770673752 0.12425946444272995
-0.105378657579422 -0.01981186307966709 0.23882907629013062
-0.5654942989349365 0.087628573179245 -0.2370270937681198
-0.04698251560330391 0.0542956218123436 -0.924213707447052
-0.49264809489250183 0.21258336305618286 0.026682935655117035
0.6307650208473206 -0.08504413813352585 -0.12841661274433136
-0.1414404958486557 -0.0044539007358253 -0.7557225227355957
0.2809877097606659 0.004724596161395311 -0.9553529024124146
0.0010226700687780976 -0.08796904981136322 -0.10132883489131927
-0.09515777230262756 0.06202271953225136 0.05797939747571945
0.11773008108139038 -0.07975742220878601 0.0908183678984642
0.7626162767410278 -0.01572231575846672 0.03092898055911064
0.2462967485189438 -0.09694861620664597 0.45881906151771545
0.14575310051441193 -0.0663757249712944 -0.012962540611624718
-0.6885809302330017 0.037686578929424286 -0.060773007571697235
0.4146288335323334 -0.08876986801624298 0.176177978515625
0.043478645384311676 -0.08685307204723358 0.037339694797992706
-0.7283494472503662 0.11605006456375122 0.25567346811294556
0.030807912349700928 -0.1256890743970871 -0.7807685136795044
0.12740108370780945 -0.05088488757610321 -0.046608563512563705
-0.6964697241783142 0.4235861897468567 0.017873896285891533
0.3504164218902588 -0.027367888018488884 0.14034008979797363
0.27876585721969604 -0.12651978433132172 -0.36856749653816223
-0.5343023538589478 0.04969874024391174 0.032282233238220215
-0.7337222695350647 0.012095347046852112 -0.1887325793504715
-0.19016067683696747 0.05705086141824722 0.99288409948349
0.16156423091888428 -0.12031926959753036 0.09123586118221283
-0.03289027139544487 0.042345624417066574 0.7760247588157654
0.34353822469711304 -0.13248202204704285 -0.12169848382472992
0.14876894652843475 -0.01648811250925064 -0.0147135304287076
-0.03564666584134102 -0.14051343500614166 0.5854347944259644
0.08242147415876389 -0.07046826183795929 -0.423163503408432
-0.08826801925897598 -0.022411471232771873 -0.20760002732276917
-0.6373567581176758 0.09154609590768814 -0.1467878818511963
-0.8660910129547119 0.21180719137191772 -0.08678638190031052
-0.5690532922744751 0.1064126119017601 -0.029651932418346405
0.19117914140224457 0.0715022161602974 -0.3472868800163269
-0.6446941494941711 0.3583175837993622 -0.011249215342104435
0.1800505518913269 0.08049747347831726 0.9132034182548523
-0.05209841951727867 -0.004510058555752039 0.8996727466583252
0.31228354573249817 -0.07847198843955994 0.015116252936422825
-0.5314041376113892 0.08537827432155609 -0.08952465653419495
-0.5342558026313782 0.03747082129120827 0.002635131822898984
0.01017504371702671 -0.1348586231470108 -0.21729318797588348
-0.10615668445825577 -0.08228590339422226 -0.2854721248149872
0.2575374245643616 -0.01819353923201561 0.05998566374182701
0.21236656606197357 -0.13316820561885834 0.15524813532829285
-0.6184013485908508 0.06651891767978668 0.15347307920455933
-0.49799373745918274 0.04282166063785553 -0.027541983872652054
0.04532864689826965 -0.13386979699134827 -0.1741660237312317
-0.5776985883712769 0.09644997864961624 0.0328374058008194
0.07649446278810501 0.21878349781036377 0.9774348735809326
0.5881630182266235 -0.019201118499040604 0.00048749393317848444
0.14381404221057892 0.059494826942682266 0.2830134928226471
-0.6338089108467102 0.22391872107982635 0.0027205718215554953
0.3606283366680145 0.07878139615058899 -0.2564883530139923
0.039249517023563385 0.04178854078054428 -0.5508162975311279
0.0721290186047554 -0.10189773887395859 0.29032832384109497
0.2402682602405548 0.02244139276444912 -0.34461620450019836
0.08641733229160309 -0.0367511510848999 0.20772387087345123
-0.7666833400726318 0.19736993312835693 0.026672983542084694
0.032241418957710266 -0.09420045465230942 -0.40889012813568115
0.20566973090171814 -0.02039269544184208 0.9824707508087158
-0.038906048983335495 0.017242373898625374 -0.7867240309715271
-0.6483320593833923 0.3563253581523895 0.011773142963647842
0.12853123247623444 0.007096007000654936 -0.0042049698531627655
0.21264119446277618 -0.041059985756874084 -0.1346517652273178
0.190168559551239 -0.06007983908057213 0.5969332456588745
0.2555399239063263 0.039394959807395935 -0.23766431212425232
0.33518800139427185 -0.026816854253411293 -0.18055717647075653
0.5059589147567749 -0.13424982130527496 -0.32721492648124695
0.6062400341033936 0.091267891228199 0.0652562603354454
0.048804596066474915 -0.03384982794523239 -0.057704340666532516
0.4820449948310852 -0.04967129975557327 0.2901385724544525
-0.7601178288459778 0.07819758355617523 -0.10857323557138443
0.19275978207588196 -0.18189053237438202 0.26296597719192505
-0.22557136416435242 0.04763604328036308 -0.4401790201663971
-0.47963953018188477 0.06474658846855164 0.13298603892326355
-0.3290179669857025 -0.005939153488725424 0.0328994020819664
-0.08033230155706406 0.03060632385313511 0.22151008248329163
-0.44655540585517883 0.09328123927116394 -0.08449927717447281
0.3633401691913605 -0.12786149978637695 -0.3158254325389862
0.030528517439961433 -0.011321949772536755 0.0991687998175621
-0.05095496028661728 0.022289849817752838 0.027767352759838104
-0.09968310594558716 0.04024612531065941 -0.591266930103302
0.35216519236564636 -0.07500992715358734 0.4139010012149811
0.18098142743110657 0.07336967438459396 0.1974882036447525
0.30957189202308655 0.10063257068395615 -0.2869921326637268
0.021940315142273903 -0.07143911719322205 -0.6158268451690674
-0.4890410602092743 0.04079928249120712 -0.12682877480983734
0.007808671332895756 0.040277693420648575 0.27164363861083984
