ply
format ascii 1.0
element vertex 779
property float x
property float y
property float z
end_header
0.666659951210022 -0.1101512461900711 0.009196454659104347
0.8648843169212341 0.04498348385095596 -0.05716391280293465
0.13823068141937256 -0.06780287623405457 0.3646514117717743
0.6544754505157471 0.019436312839388847 -0.081557497382164
0.30515584349632263 -0.07535723596811295 0.08689894527196884
0.08702749013900757 -0.04364793002605438 0.43275654315948486
-0.15612897276878357 -0.03156658262014389 -0.6070557236671448
-0.37922483682632446 0.01981787383556366 -0.03786315768957138
-0.7511734366416931 0.053980544209480286 -0.07215622812509537
0.2864256501197815 -0.05925668403506279 -0.24256742000579834
-0.45025381445884705 -0.054234880954027176 -0.053255777806043625
-0.8588775992393494 -0.0025592329911887646 -0.014393221586942673
0.7342990636825562 0.033930111676454544 0.09711821377277374
0.8203292489051819 0.036274466663599014 -0.10271578282117844
0.45080193877220154 -0.07068273425102234 -0.14520183205604553
0.02492651343345642 -0.04144839569926262 0.1102844774723053
0.7530515193939209 0.022187979891896248 0.007783575914800167
0.831163763999939 -0.06830805540084839 0.006056143436580896
-0.4215439260005951 -0.04286991432309151 -0.06461606174707413
0.7748640179634094 -0.002334542339667678 -0.028873104602098465
-0.8703863620758057 -0.03377361595630646 0.0007398657035082579
0.03375839814543724 -0.0465313158929348 -0.3304402530193329
0.18745270371437073 -0.14502471685409546 -0.06102723628282547
0.04764827340841293 -0.04885439947247505 0.16989803314208984
0.09634560346603394 -0.04120510444045067 -0.01747620850801468
0.49897029995918274 -0.012595449574291706 0.006658581551164389
-0.006035573314875364 -0.0016152019379660487 -0.2602576017379761
0.09664256125688553 -0.011342846788465977 -0.41047167778015137
0.26097944378852844 -0.042305637151002884 -0.25220537185668945
0.1695927083492279 -0.08782783895730972 -0.045985035598278046
-0.8186838030815125 0.032054804265499115 0.022472452372312546
0.3703399896621704 0.10731668025255203 -0.026302816346287727
0.02477196604013443 -0.08264946192502975 0.08509480208158493
0.05475578457117081 0.007038958836346865 0.46815207600593567
0.14455080032348633 -0.06575918197631836 -0.1818755567073822
-0.09719493985176086 -0.022651495411992073 -0.5487309694290161
-0.057116784155368805 -0.03973761200904846 -0.21228471398353577
-0.5219739079475403 -0.08848496526479721 -0.05705622583627701
-0.6289122104644775 -0.06441832333803177 -0.004838635213673115
-0.0825677141547203 -0.1298077404499054 0.04851358011364937
-0.041510727256536484 -0.05545872077345848 -0.19007521867752075
0.265924870967865 -0.09988579154014587 0.26591041684150696
0.07875601202249527 -0.007085492368787527 -0.4744051694869995
-0.013704107142984867 -0.017043087631464005 -0.38043898344039917
-0.5756935477256775 0.04182415455579758 0.03350727632641792
0.12992247939109802 -0.05369090288877487 -0.2832261919975281
0.10173439979553223 -0.07855504751205444 0.31104621291160583
-0.02697487361729145 -0.11490410566329956 -0.10439688712358475
-0.49352216720581055 -0.01576290838420391 -0.05531864985823631
-0.809112012386322 -0.03473683446645737 -0.1800795942544937
0.31270596385002136 -0.00759183568879962 -0.11193711310625076
-0.6820454597473145 0.049097541719675064 0.04583045840263367
-0.09833863377571106 0.028922149911522865 0.7816646695137024
-0.27533310651779175 0.07355765998363495 -0.03424859419465065
-0.5386177897453308 -0.06606805324554443 0.07106846570968628
0.1056879460811615 -0.01840493641793728 -0.09703164547681808
0.32878032326698303 -0.08981369435787201 0.04010775685310364
-0.048253580927848816 -0.06468178331851959 -0.1963883340358734
-0.5898149609565735 -0.08424779772758484 0.057351935654878616
0.21857494115829468 0.08933406323194504 0.020160771906375885
0.4774229824542999 0.06934778392314911 0.06343904882669449
0.4058820307254791 0.11298712342977524 -0.03917916491627693
0.32034099102020264 -0.10041806846857071 0.0962294489145279
-0.15187060832977295 -0.12968425452709198 -0.017433855682611465
-0.10199504345655441 0.03026430495083332 -0.07067196071147919
-0.6058428287506104 0.02283293753862381 -0.05412258580327034
-0.27619802951812744 -0.11907504498958588 -0.004150444641709328
0.18668656051158905 -0.06554782390594482 -0.27723464369773865
-0.8341559767723083 -0.021545853465795517 -0.07458532601594925
0.30953800678253174 -0.05900169536471367 -0.20411041378974915
-0.008193761110305786 0.008240553550422192 -0.5801172852516174
0.12233062833547592 -0.020230894908308983 -0.23563633859157562
-0.40514031052589417 0.08536577224731445 0.05049100145697594
-0.22054608166217804 0.008610065095126629 -0.7317683696746826
0.8628118634223938 -0.047524526715278625 -0.03352649137377739
0.9118861556053162 0.053839195519685745 -0.013764748349785805
0.33890917897224426 -0.0059609790332615376 -0.11297972500324249
-0.578967809677124 0.0029860795475542545 -0.0603172667324543
-0.33411702513694763 0.01127773430198431 0.057063717395067215
0.5410874485969543 -0.018789108842611313 0.09608343243598938
-0.09237179905176163 -0.006773784756660461 -0.0346432663500309
-0.43632030487060547 0.0885256752371788 -0.05658300593495369
-0.41651150584220886 -0.08086215704679489 0.0174949299544096
0.05309169366955757 -0.011996094137430191 -0.17462041974067688
0.22216416895389557 -0.04045507684350014 -0.2174404114484787
0.11632732301950455 -0.10177791118621826 -0.18017642199993134
-0.7497137784957886 -0.0027811629697680473 0.07754426449537277
0.615522563457489 -0.01646607741713524 0.08909455686807632
0.05436944589018822 -0.03823389485478401 -0.4177459478378296
0.6106888651847839 -0.10420575737953186 0.11318334937095642
-0.6734433174133301 -0.026014981791377068 -0.029806455597281456
0.0026185044553130865 -0.0290237870067358 -0.43163689970970154
-0.011680001392960548 -0.011247099377214909 0.5267720222473145
-0.7342215776443481 -0.04657549411058426 0.029580220580101013
0.0849638506770134 -0.022950049489736557 -0.06188509613275528
0.3611568808555603 -0.09108373522758484 0.23744484782218933
-0.8393163084983826 -0.053201381117105484 -0.007582907564938068
-0.45515480637550354 -0.02869780734181404 -0.07022878527641296
0.08286207914352417 -0.09181871265172958 0.2359136939048767
0.06466404348611832 -0.0214371420443058 0.491677463054657
0.2794906497001648 -0.06247100606560707 -0.2912643849849701
0.09251026064157486 -0.03456691652536392 0.4047071039676666
0.10322274267673492 -0.09218893200159073 -0.04482349753379822
0.012455223128199577 -0.02236110530793667 -0.4630415737628937
0.19944968819618225 -0.049247611314058304 0.18035732209682465
0.004161846358329058 -0.03140832483768463 -0.29443687200546265
0.3648291826248169 -0.08817847073078156 0.031105078756809235
-0.13360430300235748 0.08450386673212051 -0.05700550600886345
0.2827019691467285 -0.04477320984005928 0.22810682654380798
0.060888372361660004 -0.04804539307951927 -0.16685791313648224
0.08533501625061035 -0.03292524069547653 -0.3210185766220093
0.7836045026779175 0.028448952361941338 -0.08666025102138519
0.002415494294837117 -0.09834374487400055 0.1324542909860611
-0.14309951663017273 0.11416205763816833 0.06223716214299202
0.42829060554504395 -0.09221403300762177 0.08522899448871613
0.8906638026237488 -0.002591928234323859 0.009732495062053204
-0.686224102973938 -0.01579432189464569 -0.040977999567985535
-0.012262847274541855 -0.009218905121088028 0.6614266633987427
0.005790727213025093 -0.12825430929660797 0.1722661256790161
-0.8093195557594299 -0.012048954144120216 -0.16950896382331848
0.6607348918914795 -0.036787357181310654 0.05446267127990723
-0.16043758392333984 -0.11402872949838638 -0.12320030480623245
-0.2609110176563263 -0.10050296038389206 -0.013010494410991669
0.6284160017967224 -0.09711290150880814 -0.06125566363334656
-0.049993764609098434 -0.006001414731144905 0.6152200698852539
-0.130883127450943 -0.01949065923690796 -0.5929875373840332
-0.781542956829071 0.09363541752099991 -0.04388054832816124
0.559111475944519 -0.05006686598062515 -0.1330695003271103
-0.3387022614479065 0.03233480453491211 0.061699774116277695
-0.05960562452673912 -0.09986236691474915 0.008706633001565933
0.9194372296333313 0.03596556931734085 0.05721742659807205
-0.23831093311309814 0.05519476532936096 0.006294671446084976
-0.33649951219558716 -0.10087555646896362 0.009246819652616978
0.09296470880508423 0.013825810514390469 0.12363409996032715
0.04966358467936516 -0.019063999876379967 0.09925791621208191
0.03517124801874161 -0.024530043825507164 -0.46975240111351013
-0.8074649572372437 0.13536882400512695 -0.044634461402893066
-0.8297696113586426 0.04141099378466606 0.03260434418916702
0.04468296468257904 -0.047430552542209625 0.2059268355369568
0.2229299396276474 -0.04072770103812218 -0.21715562045574188
0.3488246202468872 0.13936519622802734 0.0226979311555624
-0.4538644850254059 -0.0756511315703392 -0.005794093944132328
-0.6720894575119019 0.09216371178627014 0.007903913967311382
-0.10731396079063416 -0.004053680691868067 -0.11203096061944962
0.09706450253725052 -0.1654682755470276 0.16270892322063446
0.045860107988119125 -0.0839288979768753 -0.3000462055206299
0.8237243890762329 -0.03337353840470314 -0.0013806046918034554
0.39719483256340027 0.01602553203701973 0.08010859042406082
0.08835528790950775 -0.12236368656158447 0.18478922545909882
0.00035746334469877183 -0.07526091486215591 0.019395722076296806
0.03629257529973984 -0.04151191934943199 -0.5508778095245361
-0.2277018278837204 0.02719375118613243 -0.7450866103172302
0.6262292861938477 -0.09571082144975662 0.03131668642163277
0.031220918521285057 -0.04032013192772865 -0.40741777420043945
-0.45434606075286865 -0.02969604730606079 0.021943306550383568
0.9394474625587463 -0.03230845928192139 0.024040184915065765
0.20852726697921753 -0.1110207810997963 0.07413479685783386
-0.6513686776161194 -0.04371441900730133 0.03715335950255394
0.05717882513999939 -0.04077394679188728 -0.4112730026245117
-0.17283563315868378 -0.06368090957403183 0.0058323973789811134
0.7944454550743103 -0.026037635281682014 -0.03892907872796059
0.17589609324932098 -0.05854261294007301 0.27283892035484314
0.1989324390888214 -0.12795810401439667 0.2201240360736847
-0.7475928664207458 -0.032499756664037704 0.0714276060461998
-0.07472702860832214 -0.1050041988492012 0.04448716342449188
-0.18012887239456177 -0.07408768683671951 0.08104857802391052
0.8128491044044495 0.028338193893432617 0.05845363810658455
-0.5001822113990784 0.045045867562294006 -0.10814344137907028
-0.28945308923721313 -0.09414271265268326 0.034147463738918304
0.602950930595398 0.0530494824051857 0.03953728824853897
0.7226381301879883 0.02795933000743389 -0.05316450819373131
0.1648269146680832 0.006107583176344633 0.25566625595092773
0.037681639194488525 -0.07065624743700027 0.07451051473617554
-0.01634133793413639 -0.13045629858970642 0.067198745906353
0.4788265526294708 0.03314513340592384 0.09786030650138855
-0.7082866430282593 0.06296754628419876 -0.04264422506093979
-0.8429430723190308 0.05777288228273392 -0.000822822330519557
-0.4296913743019104 0.025529835373163223 -0.06493261456489563
0.2734050452709198 -0.08643503487110138 0.08968086540699005
-0.4393571615219116 -0.06221812963485718 -0.06327643245458603
0.1749291718006134 -0.06624065339565277 0.27043479681015015
-0.08232886344194412 -0.013155669905245304 -0.4618517756462097
0.9480533003807068 -0.003180603263899684 0.07684919983148575
-0.7797080278396606 -0.005907720420509577 -0.06371349096298218
0.12027952820062637 -0.07926178723573685 -0.056091006845235825
-0.05118529126048088 -0.042567379772663116 -0.11040739715099335
0.26216381788253784 -0.04093221575021744 -0.13035568594932556
0.5539159774780273 0.06482739746570587 -0.11444266885519028
0.16139860451221466 0.007296419702470303 -0.021275188773870468
0.17609012126922607 -0.00587279861792922 0.15963250398635864
0.8829572796821594 -0.03432289883494377 0.041689153760671616
0.05934062600135803 -0.03346053883433342 -0.3400854170322418
0.2217317521572113 -0.049638278782367706 0.24744713306427002
0.2824206054210663 -0.002944603795185685 -0.16476331651210785
0.19012197852134705 0.06296692043542862 -0.017892777919769287
0.4365139901638031 0.04629896953701973 0.07953795790672302
-0.665113091468811 -0.02904456853866577 -0.02054724283516407
-0.8231716752052307 0.1395285725593567 0.032708585262298584
0.04681331664323807 -0.06108571216464043 0.05366518348455429
0.593163251876831 0.046404581516981125 0.10253509134054184
-0.38735857605934143 0.04315422475337982 0.02050221897661686
0.5580970644950867 -0.12575562298297882 0.05555497109889984
0.02549980767071247 -0.02015100046992302 -0.46524831652641296
0.3711160719394684 -0.0694248154759407 -0.11411640793085098
-0.6923308372497559 0.05033936724066734 -0.00297013227827847
0.8829317688941956 0.02624615468084812 -0.005779341794550419
0.637299120426178 -0.017166459932923317 -0.0828230232000351
-0.8710256218910217 -0.041053496301174164 0.015826450660824776
0.47825220227241516 0.08635842055082321 -0.06561464816331863
-0.0291150975972414 -0.05668547376990318 -0.32439985871315
0.40169385075569153 -0.04123242199420929 0.1258966326713562
-0.24862727522850037 0.021522795781493187 -0.08796355873346329
0.037024546414613724 -0.11727017164230347 -0.07267912477254868
0.6813764572143555 0.06886366009712219 -0.05018587410449982
0.42755675315856934 0.05698345601558685 -0.11452467739582062
0.8428809642791748 -0.11709381639957428 0.09851618111133575
-0.11859291046857834 -0.02818388119339943 -0.6312373876571655
-0.2541472017765045 -0.040693193674087524 0.06269019097089767
0.04068038612604141 -0.021906854584813118 -0.3778282701969147
0.02822907082736492 -0.027599049732089043 0.39753371477127075
-0.21310505270957947 0.04391268640756607 -0.0414622537791729
-0.6790310144424438 0.003129325807094574 0.03713535517454147
0.4268523156642914 -0.03936681151390076 0.12189976125955582
-0.42554575204849243 0.07707211375236511 0.023291340097784996
0.2193278670310974 -0.004681100603193045 -0.21129217743873596
-0.9005467295646667 -0.0034522057976573706 0.008713848888874054
-0.03501202166080475 0.05523626506328583 0.003946166951209307
-0.01900514028966427 -0.060510069131851196 -0.008572202175855637
0.13988742232322693 -0.029254596680402756 0.3434336185455322
0.3779449462890625 -0.13296303153038025 0.2638968229293823
-0.3994072675704956 -0.05495540052652359 0.07977154850959778
0.07577428966760635 -0.008253669366240501 -0.1979915052652359
0.1863529086112976 -0.0909591019153595 -0.09605015814304352
0.19340018928050995 -0.13274379074573517 -0.009790327399969101
0.8551037311553955 -0.0921747162938118 -0.09371484816074371
-0.5751479268074036 -0.007921246811747551 -0.02496216632425785
0.12526240944862366 -0.08110302686691284 0.022577034309506416
-0.026581067591905594 -0.07719549536705017 -0.16552481055259705
-0.016778796911239624 -0.15137508511543274 0.10579400509595871
0.38574421405792236 -0.03845231980085373 -0.07585447281599045
0.29576098918914795 -0.030437421053647995 0.16387055814266205
0.09792248904705048 -0.06930815428495407 0.25627535581588745
-0.8677068948745728 0.08633115887641907 -0.023129653185606003
-0.7555757761001587 0.038797806948423386 0.002297570463269949
0.4819600582122803 -0.00706404959782958 -0.14724279940128326
0.5191455483436584 0.12202857434749603 -0.02447405271232128
0.6850273609161377 -0.03576807305216789 0.0031748327892273664
-0.6789570450782776 0.07769250869750977 0.00895632803440094
-0.027248598635196686 -0.0025200697127729654 -0.6150486469268799
0.11365438997745514 -0.025292864069342613 -0.30844709277153015
-0.10336912423372269 0.05728600174188614 -0.03978794440627098
0.03801297768950462 0.10257893055677414 -0.014518351294100285
-0.1126987561583519 0.03644533082842827 0.0983348935842514
-0.6501098871231079 0.012326865456998348 -0.05070335790514946
0.07294180989265442 -0.1058841124176979 -0.007427295204252005
-6.400252459570765e-05 -0.009245740249752998 0.4086223840713501
-0.7402135133743286 -0.019471365958452225 -0.18265962600708008
0.18098421394824982 0.10935977101325989 -0.07709473371505737
0.3757181763648987 0.09790043532848358 -0.03929828479886055
0.23979869484901428 -0.06988127529621124 0.10632194578647614
-0.10904490202665329 -0.0019000557949766517 -0.7035317420959473
0.07692962139844894 -0.029988644644618034 -0.5631508231163025
-0.6844990849494934 -0.024897519499063492 -0.08027523756027222
0.035260092467069626 -0.023244583979249 -0.25201159715652466
-0.45255136489868164 -0.07324070483446121 0.02530558407306671
-0.683678925037384 0.05376748740673065 0.015828287228941917
0.26663970947265625 -0.06410668790340424 0.2322956770658493
0.5772266387939453 0.000871409079991281 0.11403567343950272
0.022387130185961723 -0.10285106301307678 0.1257462352514267
0.393729031085968 -0.037866782397031784 0.24099187552928925
0.8496072292327881 0.0004949427675455809 0.08852330595254898
-0.6321725249290466 -0.033843960613012314 -0.03343268111348152
0.3671926259994507 -0.0030660408083349466 -0.15526166558265686
-0.3259944021701813 -0.07263801246881485 -0.04580716788768768
-0.0715651661157608 -0.13017688691616058 0.09830040484666824
-0.2809924781322479 0.06585079431533813 -0.05087445676326752
0.08671311289072037 -0.11496855318546295 -0.13254697620868683
-0.10440483689308167 0.0287689920514822 -0.04743935167789459
0.1367042511701584 -0.04110994189977646 0.24927997589111328
-0.2332451194524765 -0.025071337819099426 -0.06196874752640724
0.10706324875354767 -0.09835989773273468 0.1518181413412094
0.7398490905761719 -0.05822859704494476 0.028234023600816727
-0.08804774284362793 -0.009126088581979275 0.6462658643722534
0.6058974266052246 0.05392187088727951 -0.03304162248969078
0.19947309792041779 -0.08112407475709915 0.24383166432380676
-0.5529544949531555 0.017596228048205376 0.05627930164337158
0.3995206654071808 0.003853463102132082 0.013335426338016987
0.10157407820224762 -0.04161082208156586 0.30609995126724243
0.1149396002292633 -0.030550075694918633 -0.32813262939453125
-0.006188532803207636 -0.02521476149559021 -0.5508407354354858
0.5203619599342346 0.011385916732251644 -0.06073659285902977
0.3979282081127167 0.04613887146115303 -0.07433509826660156
0.7937465906143188 -0.08685220777988434 -0.038563311100006104
-0.776059627532959 0.13717982172966003 -0.010772988200187683
-0.5805661082267761 -0.06988534331321716 0.034983713179826736
0.1447850912809372 -0.01559490617364645 0.14578372240066528
-0.08209581673145294 -0.053993403911590576 0.013800784014165401
-0.6077837944030762 0.025488274171948433 -0.050460029393434525
-0.6883171796798706 -0.03072630800306797 -0.06323596090078354
-0.8242442011833191 0.1522504836320877 0.008504306897521019
-0.6465900540351868 -0.03551236167550087 -0.08640610426664352
0.4688054323196411 0.05622948333621025 -0.04642418399453163
0.9499202370643616 -0.05522966384887695 -0.015081272460520267
-0.8246908187866211 0.07687410712242126 -0.006291307508945465
-0.12325684726238251 -0.012170604430139065 0.03064235858619213
0.11109589040279388 0.02320123463869095 0.10269010812044144
0.1761680245399475 -0.10158506780862808 0.14260098338127136
0.2433939129114151 0.013444077223539352 0.05606498941779137
0.0681942030787468 -0.03277686610817909 -0.44730791449546814
0.023688746616244316 -0.02197260782122612 0.07451187819242477
0.443276584148407 0.006335908081382513 0.11660608649253845
-0.8703523278236389 0.003988448064774275 -0.056159354746341705
-0.37570634484291077 -0.05823931470513344 0.07289177179336548
-0.7990084290504456 0.047602999955415726 0.013155297376215458
0.08784126490354538 0.09609125554561615 -0.0009431505459360778
-0.5088087916374207 -0.015073832124471664 0.07747914642095566
0.42791688442230225 -0.04589464142918587 0.175680473446846
0.2003856599330902 -0.10199442505836487 -0.09001331031322479
0.1857936680316925 -0.06551339477300644 0.2271079123020172
0.7314127087593079 0.0239548496901989 0.06554478406906128
-0.5177885293960571 -0.04122425988316536 -0.07984183728694916
0.009735637344419956 -0.019114837050437927 0.36968863010406494
0.16364280879497528 0.014085659757256508 0.0021934816613793373
0.1770641952753067 -0.08299897611141205 0.13371048867702484
-0.0008984692976810038 -0.054739877581596375 -0.490705281496048
0.4123729467391968 -0.060317084193229675 0.10463281720876694
-0.621811032295227 -0.07320482283830643 0.006355890538543463
-0.08854201436042786 0.047400619834661484 0.06930448859930038
0.7587182521820068 -0.09965002536773682 0.04121686890721321
-0.5455552935600281 -0.023737214505672455 -0.07064855843782425
0.07202441245317459 0.07654684036970139 -0.06076209992170334
0.047875069081783295 -0.0321226492524147 -0.3671380579471588
-0.01921287551522255 -0.038979917764663696 -0.03827593848109245
0.13992437720298767 -0.03499226272106171 -0.3727438151836395
0.2114672064781189 0.08250930905342102 -0.022090965881943703
0.1598370373249054 -0.021954957395792007 -0.11794652044773102
0.12827783823013306 -0.0330648310482502 -0.327202171087265
0.8684601783752441 0.019503960385918617 0.02301221527159214
0.05154455453157425 -0.04707708582282066 -0.24383486807346344
-0.19147978723049164 -0.05000108480453491 -0.027401287108659744
-0.05608973279595375 -0.008977062068879604 -0.5318785309791565
-0.021947229281067848 0.0027073905803263187 0.47711998224258423
0.2503247857093811 -0.038495633751153946 -0.10514573007822037
-0.8330627679824829 0.02700795605778694 0.0020571756176650524
-0.11750143021345139 -0.008463081903755665 -0.09717889130115509
0.0054708924144506454 -0.058389853686094284 0.28325173258781433
0.23768001794815063 -0.08433196693658829 -0.08698688447475433
0.2952757477760315 -0.057541027665138245 0.23546402156352997
0.8319264054298401 0.06783416867256165 -0.015381763689219952
-0.11333400011062622 -0.08813975006341934 -0.0462401919066906
0.5962779521942139 0.02190571464598179 0.15140511095523834
-0.16773955523967743 0.03583519533276558 0.03493537753820419
0.2592669129371643 -0.1168643981218338 -0.018731940537691116
-0.687139630317688 0.050539467483758926 0.0053080241195857525
0.12925761938095093 -0.08429349958896637 0.24800696969032288
-0.5176444053649902 -0.032303038984537125 -0.05160091444849968
0.047925226390361786 -0.051398925483226776 0.2809094190597534
0.2671504020690918 -0.06438400596380234 0.15968628227710724
0.4981747567653656 -0.14624157547950745 0.026889309287071228
0.12146163731813431 -0.07956622540950775 0.1381494551897049
0.2753704786300659 -0.10189653933048248 0.02021671272814274
0.8124963045120239 -0.10680246353149414 -0.003492548130452633
0.2301769256591797 0.09581273049116135 -0.06509184092283249
0.8902597427368164 0.05594608187675476 0.04981722682714462
0.03824105113744736 -0.08511227369308472 -0.017275096848607063
0.2095670998096466 -0.06483428925275803 0.050415363162755966
0.5464909672737122 0.0517527312040329 -0.04175330698490143
0.04833946377038956 -0.04345712438225746 0.270015686750412
0.40242883563041687 0.09805053472518921 0.021104419603943825
-0.06043064966797829 0.004912876524031162 0.7516753673553467
-0.1022055372595787 -0.006280827336013317 0.6144629120826721
0.4392697513103485 -0.13227516412734985 0.011043970473110676
-0.4505569040775299 0.05997777730226517 0.026759447529911995
0.6609527468681335 -0.023421013727784157 0.06189905107021332
0.539836585521698 0.08170433342456818 -0.031162403523921967
-0.7924339771270752 -0.012196176685392857 -0.03371987119317055
-0.45120564103126526 0.005439030472189188 -0.07779616117477417
0.26852819323539734 -0.10146930068731308 0.03675371780991554
0.889653742313385 -0.019950024783611298 -0.022582555189728737
-0.3797953128814697 -0.03600547835230827 0.08280088752508163
-0.7945285439491272 0.07520293444395065 0.009830590337514877
-0.8177419304847717 0.1461145430803299 -0.006426629144698381
0.20340251922607422 -0.03667604178190231 -0.1499766707420349
0.0969192385673523 -0.06410522758960724 -0.1982024759054184
0.7453801035881042 0.03204271197319031 0.11794475466012955
0.23578795790672302 -0.03501040115952492 -0.19180648028850555
0.19497303664684296 -0.1280413120985031 -0.07896684110164642
0.20524197816848755 0.01141858845949173 0.026713788509368896
0.1540391594171524 -0.08411871641874313 -0.0027835313230752945
0.20304270088672638 0.12929850816726685 -0.010528719052672386
-0.014003119431436062 0.04286769777536392 0.6454014182090759
-0.5695930123329163 -0.03694916516542435 0.04245463386178017
0.15382859110832214 -0.05649947002530098 -0.20616596937179565
0.2121286690235138 -0.03674247860908508 -0.16426807641983032
-0.10432352870702744 0.04281054437160492 -0.03511190414428711
-0.7891119718551636 0.10524371266365051 -0.05645976960659027
0.03577595204114914 -0.05397724360227585 0.24288614094257355
0.06753747910261154 -0.09522529691457748 -0.0033088712953031063
0.4001741111278534 -0.0177176333963871 0.04459978640079498
0.10220891237258911 -0.048080433160066605 -0.1436915546655655
-0.7524095773696899 -0.015392816625535488 -0.0990828201174736
-0.698904275894165 -0.075602225959301 -5.914264329476282e-05
-0.8938438296318054 0.12533265352249146 -0.01688230037689209
0.4659174382686615 0.05061844363808632 -0.08204224705696106
0.11905315518379211 -0.08208075165748596 -0.24228303134441376
-0.00053336814744398 0.012256494723260403 -0.5403238534927368
0.05793527141213417 -0.07218839973211288 0.3626690208911896
0.03008914552628994 -0.03552285581827164 -0.433711975812912
0.697134256362915 -0.14956475794315338 0.020853614434599876
0.49278905987739563 -0.1484939455986023 0.04627678915858269
0.6346335411071777 -0.023599522188305855 -0.08674196153879166
0.17812854051589966 -0.04149966314435005 -0.32812315225601196
-0.8696531057357788 -0.058481473475694656 -0.010685807093977928
0.1943322867155075 -0.007454789709299803 -0.19156603515148163
0.7353545427322388 0.052687887102365494 -0.033527303487062454
0.2950977385044098 -0.06268371641635895 0.24130044877529144
-0.3831176459789276 -0.10509765893220901 -0.029271932318806648
0.04349271208047867 -0.09237060695886612 -0.242780402302742
-0.0664619728922844 0.003020862117409706 -0.6066102981567383
0.5124027729034424 0.04855384677648544 0.07591122388839722
0.1089053675532341 -0.024439021944999695 0.32185277342796326
-0.021836338564753532 -0.023630136623978615 0.10220059752464294
0.2484673112630844 -0.10798100382089615 0.24262204766273499
0.23715269565582275 -0.07532643526792526 -0.10861646384000778
0.011061706580221653 -0.006768673658370972 -0.5146617889404297
-0.4081568419933319 0.034774020314216614 0.03281375765800476
0.06100437045097351 -0.02316831797361374 0.1792387217283249
0.3164510428905487 -0.0769936740398407 -0.06559468060731888
-0.019356004893779755 0.033988673239946365 0.6971628069877625
0.736657977104187 0.027860861271619797 -0.08221375197172165
0.12080056965351105 -0.05004119873046875 0.00692726718261838
-0.24798551201820374 -0.016628723591566086 0.02108169160783291
0.00931647140532732 -0.05061367154121399 -0.029562870040535927
-0.08470025658607483 -0.009177451953291893 0.589280366897583
0.060811884701251984 -0.020608071237802505 0.3571951687335968
0.012017552740871906 -0.020247017964720726 0.3973809480667114
0.7090416550636292 0.07687926292419434 -0.033450670540332794
0.09858796000480652 -0.026321744546294212 -0.16673408448696136
0.33469295501708984 -0.051900651305913925 0.2237595021724701
-0.686465859413147 0.058663442730903625 -0.024249017238616943
-0.47156086564064026 -0.09057863801717758 0.024314414709806442
0.511866569519043 -0.046295106410980225 0.09569250792264938
0.437823623418808 0.08455150574445724 0.03834452107548714
0.09932591021060944 -0.07258166372776031 0.10267520695924759
-0.1443786919116974 -0.08798542618751526 0.03876962512731552
0.2824190557003021 -0.08262237906455994 -0.09973356872797012
0.18143872916698456 -0.09481342881917953 -0.12257502973079681
0.8382849097251892 0.04767860844731331 0.0496290884912014
0.6304020881652832 -0.11174643784761429 0.048682939261198044
-0.06740358471870422 -0.003633592976257205 0.0006683235405944288
0.3028802275657654 -0.050926439464092255 -0.28051939606666565
-0.6968984007835388 0.048043057322502136 -0.007362882606685162
-0.031601209193468094 -0.09302835911512375 0.1058528795838356
0.06233794614672661 -0.03504486382007599 -0.19992195069789886
-0.8385283946990967 0.18483488261699677 0.00031578863854520023
0.004312049597501755 -0.03658684343099594 -0.3255910575389862
0.299617201089859 0.0229604821652174 0.12342839688062668
-0.01710161752998829 0.013730357401072979 0.6298282146453857
-0.013118656352162361 -0.15425585210323334 0.090385302901268
-0.509784996509552 -0.0033237456809729338 -0.0751877948641777
0.47025999426841736 -0.059040818363428116 0.0883435606956482
-0.5551111102104187 -0.1280985027551651 -0.003868567757308483
-0.8271366953849792 0.13720273971557617 -0.04681960865855217
0.14937901496887207 -0.04155389592051506 -0.34060895442962646
-0.434601753950119 0.0788712427020073 -0.0031503005884587765
0.7580235004425049 -0.10601836442947388 0.0640866681933403
-0.44971928000450134 0.07018636912107468 -0.001950778067111969
0.7729886174201965 -0.06228204444050789 -0.0329088494181633
-0.2148967832326889 0.03890029340982437 0.002223058370873332
-0.536515474319458 0.1014043465256691 0.025606684386730194
0.612362802028656 -0.04087173566222191 0.07286838442087173
-0.5061463117599487 -0.08040846884250641 0.002324925735592842
-0.1084376648068428 -0.09565331041812897 -0.029025156050920486
-0.852234423160553 0.16143326461315155 0.021959546953439713
-0.7369544506072998 -0.05214088410139084 -0.0857873484492302
0.48095953464508057 -0.0575401596724987 0.004429444205015898
0.16155025362968445 -0.080907441675663 0.1471836268901825
0.3734424412250519 0.11794640123844147 0.03620526194572449
-0.2596188187599182 -0.06810968369245529 -0.001609151717275381
0.46554216742515564 -0.058227285742759705 -0.1460544615983963
-0.14066708087921143 0.01252098847180605 0.7858073115348816
-0.4493063986301422 -0.04120496287941933 0.018244672566652298
0.4098181128501892 0.09127611666917801 -0.06674496084451675
0.17845787107944489 -0.05652892217040062 0.22445903718471527
-0.028114978224039078 -0.016255535185337067 0.5289119482040405
0.6533059477806091 -0.10119646787643433 -0.035554829984903336
0.08736400306224823 0.02562243677675724 -0.09308916330337524
0.09083811938762665 -0.01805095560848713 0.44239577651023865
0.2342887669801712 -0.07836557924747467 -0.08087152987718582
0.48917442560195923 0.016135748475790024 0.15855374932289124
0.2797819972038269 -0.028040407225489616 0.09562817960977554
0.17693935334682465 -0.05427810549736023 0.307541161775589
-0.06163865327835083 -0.07602591812610626 -0.08903156965970993
-0.33671820163726807 0.06373445689678192 -0.016354404389858246
0.23094415664672852 -0.08368735015392303 0.07111512869596481
-0.4759388864040375 -0.049295052886009216 0.0009550501126796007
0.8102555871009827 -0.09884452819824219 0.085057832300663
-0.3488513231277466 -0.0830940380692482 -0.03667549043893814
-0.5272285342216492 -0.012843768112361431 -0.000659411249216646
0.18798856437206268 -0.11480026692152023 -0.3370983600616455
0.44070711731910706 -0.053160715848207474 -0.09007380902767181
0.21677625179290771 -0.05757666006684303 -0.16876475512981415
0.022473152726888657 0.017363574355840683 -0.1155020222067833
0.23607440292835236 -0.05912734195590019 0.2562445402145386
0.04761362820863724 0.049103282392024994 -0.01137617602944374
0.47163280844688416 0.0025649825111031532 0.1396246999502182
0.14599820971488953 -0.040200408548116684 -0.12996558845043182
0.10131176561117172 -0.08404164761304855 -0.22753815352916718
0.588001012802124 0.02907993271946907 0.00873126182705164
0.15968099236488342 -0.030434364452958107 0.21118856966495514
0.6793586611747742 -0.14909055829048157 0.07336624711751938
0.7605862617492676 -0.14152880012989044 0.07691704481840134
0.3229755163192749 -0.08304093778133392 0.2474684864282608
0.7027132511138916 -0.009729648008942604 0.047479063272476196
0.14913108944892883 -0.002320063067600131 -0.31936734914779663
-0.02831844426691532 0.011629513464868069 -0.42078521847724915
-0.355370432138443 0.003339399117976427 0.04444102197885513
0.3537731170654297 -0.01867106556892395 -0.20097598433494568
-0.09489580988883972 -0.07732827961444855 -0.019461268559098244
0.28767725825309753 -0.03510942682623863 0.13513237237930298
0.4549129903316498 -0.033873286098241806 0.03391746059060097
-0.026568450033664703 -0.021309765055775642 -0.5991599559783936
-0.42131513357162476 -0.08179375529289246 0.031162789091467857
-0.7795135974884033 0.045457128435373306 -0.056055232882499695
-0.8245606422424316 -0.008807670325040817 -0.03841101750731468
-0.7338823676109314 0.034460172057151794 0.058198653161525726
0.40600213408470154 -0.0709967315196991 -0.1396738886833191
0.7211887240409851 -0.04155260697007179 -0.1403777003288269
-0.7820431590080261 0.05425342917442322 -0.019815200939774513
-0.11579862982034683 -0.05162443965673447 0.09476660192012787
0.4641939103603363 -0.11673471331596375 0.08617903292179108
0.2830588221549988 -0.10601531714200974 0.2635653018951416
0.5156461596488953 -0.0016858604503795505 0.027004262432456017
-0.034860286861658096 -0.0366569347679615 -0.0015307455323636532
0.28976163268089294 -0.15251551568508148 0.029498662799596786
-0.6442887187004089 0.040155522525310516 0.0025024088099598885
0.2956642508506775 -0.1262616366147995 -0.09726506471633911
0.6387727856636047 0.0727161392569542 -0.0007488986011594534
0.4392545223236084 -0.0699702799320221 0.07264187186956406
0.004944448359310627 -0.09746420383453369 0.06060965359210968
0.1690870225429535 -0.06313742697238922 -0.1452101469039917
0.14985814690589905 -0.04521913453936577 0.21737009286880493
0.10636470466852188 -0.09583590924739838 -0.002337850397452712
0.6301459670066833 -0.05563424527645111 -0.06315243244171143
-0.06614165753126144 -0.017947401851415634 -0.09161585569381714
0.5878500938415527 -0.12093375623226166 -0.06588747352361679
0.27569833397865295 0.06494425237178802 -0.06843189150094986
-0.49571454524993896 -0.055706217885017395 -0.054705098271369934
0.0138726606965065 -0.010563071817159653 0.5216303467750549
-0.16195683181285858 -0.013001076877117157 -0.6181600093841553
0.36317604780197144 -0.054699815809726715 0.12824320793151855
0.04212681204080582 0.06449655443429947 -0.0900680273771286
0.3012069761753082 0.05129203200340271 -0.030050449073314667
0.6743977069854736 -0.07387075573205948 -0.11833959072828293
0.18749308586120605 -0.11238983273506165 0.26502519845962524
0.4342823624610901 -0.12348382920026779 -0.13203974068164825
-0.06387128680944443 -0.013944716192781925 -0.6540817022323608
0.1469065248966217 -0.04308692365884781 -0.32396137714385986
0.673180878162384 0.09002138674259186 -0.020100442692637444
-0.054969385266304016 0.008786147460341454 -0.544148862361908
-0.31997841596603394 -0.07970808446407318 0.0581820048391819
0.16894486546516418 -0.0038888948038220406 0.1763325333595276
-0.09845079481601715 -0.11436591297388077 -0.08065266162157059
-0.7602850198745728 -0.0036425418220460415 0.0016945753013715148
0.2595864236354828 -0.03248274326324463 0.012122616171836853
-0.662534773349762 -0.055364154279232025 0.05839100480079651
0.17780791223049164 -0.07227244228124619 0.2361895740032196
0.2508776783943176 -0.09603732824325562 0.3085598051548004
0.014690019190311432 -0.016531771048903465 0.45179539918899536
0.05183418467640877 -0.005617567338049412 -0.3715466558933258
-0.6951391696929932 -0.004722746554762125 0.02483464777469635
0.019769039005041122 0.044520363211631775 -0.04757966846227646
-0.04939081519842148 -0.05232403799891472 0.06258662045001984
-0.8374282121658325 -0.027590515092015266 -0.028050528839230537
0.25144967436790466 -0.011335189454257488 0.15432706475257874
0.9086888432502747 -0.03431642800569534 0.031260594725608826
0.5096243619918823 -0.048640113323926926 -0.1745305061340332
0.017926357686519623 -0.020510556176304817 -0.49424484372138977
0.3292778730392456 0.07219310849905014 0.03481021150946617
-0.5682478547096252 0.027242692187428474 -0.011482859030365944
0.8006340861320496 -0.004882918205112219 0.0013272734358906746
0.6819052696228027 -0.06781121343374252 0.14395831525325775
0.553304135799408 -0.11412671208381653 -0.05454642325639725
0.39521485567092896 0.020958295091986656 0.08579858392477036
0.003448061179369688 -0.0398322232067585 -0.33429351449012756
0.20456640422344208 -0.1184248998761177 0.03418360650539398
-0.8012394905090332 0.17925268411636353 -0.007545067463070154
0.11218318343162537 -0.07917644083499908 -0.28540101647377014
-0.536926805973053 -0.030704397708177567 -0.03982899710536003
-0.8466467261314392 0.060881052166223526 0.016771633177995682
0.07396447658538818 -0.1178545281291008 0.16181769967079163
-0.3177736699581146 0.03546369448304176 -0.0003439930733293295
-0.0326567068696022 -0.043458156287670135 -0.18176718056201935
-0.5654348731040955 -0.027108779177069664 -0.0535147450864315
-0.5826196074485779 0.08928732573986053 -0.0007923905504867435
-0.022642528638243675 0.005750734359025955 0.6355361342430115
-0.010939907282590866 -0.04153846949338913 0.17759589850902557
-0.03823606297373772 -0.08499198406934738 -0.02522318810224533
0.052913911640644073 0.04578232392668724 -0.0805198922753334
-0.16888664662837982 -0.009889382869005203 -0.6230180263519287
-0.038336046040058136 0.02411738969385624 0.6580648422241211
0.12182502448558807 0.06624176353216171 -0.065970778465271
-0.12984329462051392 0.013846329413354397 -0.5804728865623474
-0.6254591345787048 -0.024793701246380806 -0.006406488828361034
0.5175573825836182 -0.00845409370958805 -0.1525920033454895
-0.22695055603981018 -0.00564742973074317 -0.11651986092329025
0.05391417443752289 -0.07170477509498596 -0.20472948253154755
-0.02565840259194374 -0.023670706897974014 -0.2942677438259125
-0.4528715908527374 -0.059617605060338974 -0.08592104911804199
0.8783530592918396 -0.019084075465798378 0.07029855251312256
0.08206633478403091 -0.018017951399087906 -0.07480457425117493
0.5417127013206482 -0.07808753103017807 0.04242787882685661
0.06265825033187866 -0.03278746455907822 -0.4816533327102661
0.1609175205230713 -0.04174068197607994 -0.29892393946647644
-0.7416733503341675 0.07251321524381638 0.0019273576326668262
0.6978945136070251 0.10746180266141891 -0.060223497450351715
-0.8344570398330688 0.07277147471904755 -0.036523811519145966
-0.45901647210121155 -0.0607975497841835 0.07174032181501389
-0.7892367839813232 0.1898123323917389 0.0043112775310873985
-0.18594028055667877 -0.10101670771837234 -0.05566093698143959
-0.783694863319397 -0.040448907762765884 0.009580523706972599
0.7081733345985413 -0.061888933181762695 0.04111551493406296
0.04849635064601898 -0.030633386224508286 -0.1106395572423935
0.13943542540073395 -0.030145585536956787 -0.19905243813991547
0.7874749302864075 -0.07312097400426865 0.02156720496714115
-0.44296661019325256 0.08330047875642776 0.05699145421385765
0.8705877065658569 0.04387378320097923 -0.016883034259080887
0.008955759927630424 -0.018772084265947342 -0.4493342339992523
0.7285997867584229 -0.017081832513213158 0.10011263936758041
-0.12423510104417801 -0.016646578907966614 -0.07677415013313293
-0.651802122592926 -0.07075203955173492 0.06254956126213074
-0.14218419790267944 -0.11025386303663254 -0.024040183052420616
0.3067198097705841 -0.13741405308246613 0.26828497648239136
-0.7747619152069092 -0.06263798475265503 0.029162324965000153
0.38740769028663635 0.11456389725208282 -0.026606963947415352
-0.19287367165088654 0.016451766714453697 -0.7330632209777832
-0.6383030414581299 -0.04873502999544144 -0.038192808628082275
-0.05667319893836975 -0.0616438090801239 0.06421346217393875
-0.6048465371131897 -0.04001574590802193 -0.05183936282992363
0.9571908712387085 -0.056153468787670135 0.07636155933141708
0.2953803539276123 -0.1446612924337387 0.2011784464120865
-0.09247738122940063 -0.05841955542564392 0.08877446502447128
-0.09428957849740982 -0.06005137041211128 0.08094298094511032
0.04751284047961235 -0.0755280926823616 -0.1599205881357193
-0.7196687459945679 0.10359906405210495 -0.010591674596071243
0.15487708151340485 -0.021063905209302902 0.19725292921066284
0.07969911396503448 -0.00909742433577776 0.08607877790927887
0.2998614013195038 -0.10340255498886108 -0.03295556455850601
0.3252880573272705 -0.10276312381029129 0.1931603103876114
-0.8169008493423462 0.0019437393639236689 0.010002002120018005
0.0027947216294705868 -0.0264669731259346 -0.37287959456443787
0.2137898951768875 -0.0784815102815628 -0.3007723093032837
-0.16096697747707367 0.06627137959003448 -0.021182438358664513
0.9271689057350159 -0.06659374386072159 -0.013038226403295994
0.4987848699092865 0.0038197780959308147 0.10999321937561035
0.025501860305666924 0.007467901334166527 0.6147292256355286
0.22625821828842163 -0.14599375426769257 0.0018193615833297372
-0.39502647519111633 -0.03346838802099228 -0.009604795835912228
-0.1079515740275383 -0.1160944402217865 0.12155789881944656
-0.030731797218322754 -0.05259641632437706 -0.2905038297176361
-0.06035929545760155 -0.008917097933590412 -0.5166691541671753
0.7897240519523621 0.029856055974960327 0.08490778505802155
-0.1285434514284134 -0.0818132683634758 -0.07154691964387894
0.147608682513237 -0.14113430678844452 -0.10524197667837143
0.2311018407344818 -0.014626411721110344 0.11734702438116074
0.3823080360889435 -0.12359780073165894 0.07582741230726242
0.35953637957572937 -0.04435337334871292 -0.08643317967653275
0.35944312810897827 -0.0693267434835434 0.14278550446033478
0.06880204379558563 -0.03607632592320442 -0.2630360722541809
0.18290673196315765 -0.011438808403909206 -0.24887874722480774
0.1358450949192047 0.0526500940322876 0.03483082726597786
-0.3357275426387787 -0.08225437998771667 -0.022806834429502487
0.28928235173225403 -0.09221906214952469 -0.28778138756752014
0.1239546537399292 -0.04704056680202484 -0.3122164309024811
0.011048137210309505 -0.05096028745174408 -0.10099717974662781
0.6237685084342957 -0.09474866092205048 0.04691416025161743
0.03455452248454094 -0.05328628048300743 0.018117869272828102
0.05542091280221939 -0.09749137610197067 0.1255873739719391
-0.24081726372241974 0.032064951956272125 -0.054753564298152924
0.08382236957550049 -0.048086151480674744 0.4017784297466278
0.24813468754291534 0.06647680699825287 -0.011364554055035114
0.583941638469696 -0.06316497176885605 -0.09645596891641617
0.15349623560905457 -0.035270411521196365 -0.34688258171081543
0.6069558262825012 -0.06732682883739471 -0.10334981232881546
-0.6908909678459167 0.09584270417690277 0.06207983195781708
0.2661254405975342 0.03630494326353073 0.1193452775478363
-0.8189880847930908 -0.02441423386335373 0.044690415263175964
0.1898225098848343 0.09248452633619308 -0.01761590875685215
0.16186107695102692 -0.08963941037654877 0.1192161813378334
0.4005403220653534 -0.05815894901752472 0.19575908780097961
-0.4827274978160858 -0.06143224611878395 -0.026264552026987076
0.01132483221590519 0.008027929812669754 0.6745433807373047
-0.7977970838546753 -0.00789189338684082 0.0604238398373127
-0.14073573052883148 -0.09761370718479156 -0.022307023406028748
0.2854636609554291 -0.07549465447664261 -0.03743252158164978
0.2771671712398529 2.3951846742420457e-05 -0.04382047429680824
0.1529003381729126 -0.11891934275627136 -0.06759819388389587
0.09008989483118057 -0.10743648558855057 0.14846625924110413
0.07119027525186539 -0.004432782996445894 -0.4402346909046173
0.620595395565033 -0.06707005947828293 -0.12471626698970795
0.3531205654144287 -0.07673551887273788 -0.01898486167192459
-0.17589962482452393 -0.012469680979847908 -0.17232351005077362
0.06969159841537476 -0.036541685461997986 0.42041197419166565
0.21526198089122772 -0.074515201151371 0.29086363315582275
-0.4924015402793884 -0.09423598647117615 -0.05596861243247986
0.8284226059913635 -0.024829020723700523 -0.05163707211613655
-0.4782717823982239 -0.08329198509454727 -0.021677041426301003
0.033958908170461655 -0.041553568094968796 -0.05720708891749382
0.8634244799613953 -0.027162402868270874 -0.03870415687561035
0.36390647292137146 -0.03227843716740608 -0.15629374980926514
-0.43152645230293274 0.0711764544248581 0.032037410885095596
0.10370760411024094 -0.03882232680916786 0.26542794704437256
0.5899883508682251 0.03816285729408264 -0.060315851122140884
0.5384173393249512 -0.1016244888305664 0.09636525064706802
0.7244376540184021 -0.07611147314310074 0.08380021899938583
0.12529999017715454 0.1047452762722969 0.012964929454028606
0.2899623513221741 -0.04485952481627464 0.10375108569860458
-0.17483243346214294 -0.01003244798630476 -0.7114667296409607
0.46792343258857727 -0.027407066896557808 -0.1414673626422882
-0.47674062848091125 -0.0028251991607248783 0.06858792901039124
0.4770713448524475 -0.1663140058517456 0.06095847487449646
0.8466108441352844 0.0897313803434372 0.000592453870922327
-0.5938702821731567 0.054829131811857224 -0.015346654690802097
0.3325549066066742 0.019006134942173958 0.17923372983932495
-0.6943511962890625 0.03680483251810074 -0.028402967378497124
-0.5623486638069153 -0.04824109375476837 0.037274595350027084
-0.3082345426082611 -0.12463699281215668 -0.010919492691755295
0.09579487144947052 -0.007584409788250923 -0.3049176037311554
0.8485771417617798 -0.0952063724398613 0.041384678333997726
0.1701391637325287 -0.04182705283164978 -0.11963339895009995
-0.4014265239238739 -0.007329165004193783 0.04654964804649353
0.14001674950122833 -0.13184674084186554 -0.07416853308677673
0.07524542510509491 -0.04724721610546112 -0.09283847361803055
-0.10219378769397736 -0.009538977406919003 0.7225906848907471
0.15991953015327454 -0.016376454383134842 -0.16479527950286865
-0.5608283281326294 0.033348262310028076 -0.029037294909358025
0.2945011854171753 -0.10103189945220947 -0.19093291461467743
0.3361371159553528 0.06544160097837448 0.11315024644136429
-0.5433646440505981 0.029027553275227547 0.016773711889982224
0.33920228481292725 -0.13066336512565613 0.2103155553340912
0.03847379609942436 -0.07413534820079803 0.2189551144838333
0.5476939678192139 -0.07914111763238907 -0.18117345869541168
0.47796711325645447 -0.07428629696369171 -0.012209849432110786
-0.525281548500061 -0.05761729180812836 -0.06740383058786392
0.1410549432039261 0.07374182343482971 -0.05011453852057457
-0.044424500316381454 -0.014472920447587967 0.47871458530426025
0.12175288796424866 -0.06157486140727997 -0.2571621239185333
-0.008633332327008247 -0.005807886831462383 -0.0232413187623024
0.010886605829000473 0.04942256957292557 -0.13764609396457672
-0.007542658131569624 -0.10673845559358597 -0.11703585088253021
-0.023205237463116646 0.0457172766327858 0.06309522688388824
-0.8185677528381348 0.07986613363027573 0.10459505021572113
0.07368802279233932 -0.06236913427710533 0.33388763666152954
0.07806933671236038 -0.07038897275924683 0.3594842255115509
0.02480258420109749 -0.021782781928777695 0.07057143747806549
0.14505505561828613 -0.11537345498800278 -0.13394078612327576
0.3769688308238983 -0.10711240023374557 -0.027451518923044205
0.6666792035102844 -8.620986591267865e-06 -0.008496029302477837
0.03930303081870079 -0.04699290543794632 0.0007024497608654201
0.36468809843063354 -0.03240223601460457 -0.2680767774581909
-0.24609999358654022 0.025117577984929085 -0.05923669785261154
0.1212589293718338 -0.055321577936410904 0.21828079223632812
-0.8726287484169006 0.011602343991398811 -0.0406193770468235
-0.022376365959644318 -0.10011398047208786 0.03279639780521393
0.8586164116859436 -0.036735378205776215 0.037865523248910904
-0.8641559481620789 0.20461983978748322 0.01935509964823723
0.8457556366920471 -0.009794431738555431 0.05585991218686104
0.9116449356079102 0.007469906471669674 0.009365303441882133
0.032741159200668335 -0.012601477093994617 0.6035693883895874
-0.0002811388112604618 0.012875710614025593 -0.3676459789276123
0.3535822629928589 0.05236482992768288 -0.013281948864459991
-0.8234144449234009 0.016748063266277313 0.0009679542272351682
0.22599293291568756 -0.10576555132865906 0.08132626861333847
-0.07895065099000931 0.03521939739584923 0.05710529908537865
-0.0006300187669694424 -0.0499517098069191 -0.10311255604028702
0.1639183908700943 -0.024562815204262733 -0.08851403743028641
0.6313062310218811 -0.11316379904747009 -0.09316156804561615
0.09592017531394958 -0.046679530292749405 0.19293418526649475
0.13196375966072083 -0.08384815603494644 -0.0660862922668457
