ply
format ascii 1.0
element vertex 788
property float x
property float y
property float z
end_header
0.5349040031433105 0.10410367697477341 -0.09606761485338211
-0.005580083001405001 0.062302589416503906 0.3288458585739136
-0.025769062340259552 0.031758908182382584 -0.04886999726295471
-0.9009355306625366 0.44363152980804443 -0.1156662330031395
-0.007945606485009193 -0.018295804038643837 -0.1515250951051712
-0.19148823618888855 -0.2288619428873062 -0.3572525680065155
-0.022830139845609665 -0.03812649846076965 -0.1974416822195053
0.29899540543556213 0.12361666560173035 0.026470666751265526
0.05064275488257408 0.11632125079631805 -0.13794386386871338
-0.058831799775362015 -0.1009160652756691 0.04483571648597717
-0.5782375931739807 0.2484581470489502 -0.024175241589546204
-0.13316278159618378 0.002767292084172368 0.3026874363422394
-0.1193246841430664 0.26907628774642944 0.4189099073410034
0.18569137156009674 0.1375119388103485 0.29134687781333923
-0.38015952706336975 0.16292144358158112 -0.40997377038002014
-0.013486065901815891 0.16457851231098175 0.12209466099739075
0.2565307915210724 -0.07345178723335266 0.20436042547225952
-0.18789435923099518 0.10790084302425385 0.022540446370840073
0.2285977303981781 0.11058273911476135 0.159724161028862
-0.13031122088432312 0.09895958751440048 0.1535705327987671
0.3834063708782196 -0.09523472189903259 0.41255664825439453
-0.0983685627579689 0.1477022022008896 -0.30590683221817017
-0.5079459547996521 0.14820721745491028 0.39949145913124084
-0.42048510909080505 0.0037217133212834597 0.32203614711761475
-0.1820468157529831 0.06680303066968918 -0.20847240090370178
0.19475366175174713 0.09668461233377457 0.5235422253608704
0.5514028668403625 -0.002744266763329506 -0.23180034756660461
-0.2009904682636261 0.14481110870838165 -0.054841361939907074
-0.43906956911087036 0.18847715854644775 0.18808044493198395
0.36320018768310547 0.1158486157655716 0.1899588704109192
0.40101054310798645 -0.2488156408071518 0.06180250644683838
0.799275279045105 -0.09213105589151382 -0.1621520072221756
-0.24486374855041504 -0.0803651437163353 0.04157581552863121
0.07836788892745972 0.07110783457756042 -0.21546383202075958
-0.43574339151382446 0.22608284652233124 -0.15359169244766235
0.15978804230690002 0.07273441553115845 0.1182812750339508
0.55455482006073 -0.19999024271965027 -0.21551600098609924
-0.20147213339805603 -2.9305822408787208e-06 0.18663859367370605
0.05106518790125847 -0.17001239955425262 0.1551574468612671
0.1066417321562767 -0.16611790657043457 -0.33500993251800537
-0.4272977411746979 0.2556700110435486 0.25461113452911377
-0.34664127230644226 0.18338370323181152 -0.1775931864976883
-0.42482784390449524 -0.16610415279865265 0.15478162467479706
0.357008695602417 -0.3077099025249481 -0.04819018766283989
-0.18336620926856995 0.042647626250982285 -0.16860882937908173
-0.690185010433197 0.18210114538669586 -0.31063827872276306
0.2804376780986786 0.03917878121137619 -0.051718708127737045
-0.02796274423599243 0.11985267698764801 0.12473814189434052
0.994000256061554 -0.08368556201457977 0.0227204579859972
0.33144333958625793 0.024908913299441338 -0.14096292853355408
-0.20998455584049225 0.25393274426460266 -0.2548089623451233
-0.02700597234070301 -0.045239292085170746 -0.17742882668972015
-0.6031347513198853 0.03731228783726692 0.024371324107050896
0.26090121269226074 0.10211168229579926 -0.32330217957496643
0.19657652080059052 0.1380051076412201 0.029017047956585884
-0.3352043032646179 -0.0626162514090538 -0.20128275454044342
-0.34605395793914795 -0.10088293254375458 -0.11852136999368668
-0.48969462513923645 0.29370543360710144 -0.3463035225868225
0.7625696063041687 0.08375941216945648 0.15721942484378815
0.631715714931488 0.05724060907959938 -0.2580450177192688
-0.16680437326431274 0.10472259670495987 -0.27498018741607666
0.6860973238945007 -0.04968529939651489 0.0551852285861969
-0.06399144232273102 0.02596110850572586 -0.17418192327022552
0.026978444308042526 0.23658987879753113 -0.11647696048021317
0.2654263377189636 -0.07942519336938858 -0.18187318742275238
-0.966732919216156 0.012137110345065594 -0.07356732338666916
-0.868552565574646 0.23330357670783997 0.25941771268844604
0.35586509108543396 -0.06328786909580231 0.07345422357320786
-0.10279952734708786 0.28117331862449646 -0.3314952254295349
-0.2169388234615326 0.04798051714897156 0.18808811902999878
0.17538313567638397 -0.13335266709327698 0.30404627323150635
-0.2632524073123932 0.10066260397434235 -0.15626999735832214
-0.8086504340171814 0.419084370136261 0.07009810954332352
0.1722259819507599 -0.23183658719062805 -0.32493555545806885
-0.2384055256843567 -0.057781994342803955 0.23708608746528625
-0.1580561399459839 0.0689847394824028 0.38976427912712097
-0.10988109558820724 -0.02244417369365692 0.19546857476234436
-0.7126185894012451 0.5157833099365234 0.1520097255706787
-0.0318046398460865 0.41442450881004333 0.034157563000917435
-0.19245174527168274 -0.20153455436229706 0.2313283234834671
0.8233401775360107 -0.18184982240200043 -0.21068836748600006
0.7356658577919006 0.008215551264584064 0.21022523939609528
0.17423559725284576 0.08498404175043106 -0.19890137016773224
0.32748961448669434 0.23761889338493347 0.14644306898117065
0.26836276054382324 0.16775885224342346 -0.26696765422821045
-0.14146743714809418 -0.0051749893464148045 0.037192218005657196
-0.06788400560617447 -0.15383093059062958 -0.00866820476949215
0.1427997499704361 -0.12069425731897354 0.28672346472740173
0.07683941721916199 0.01596580445766449 -0.2925592064857483
0.296401709318161 -0.062309056520462036 -0.018614070490002632
-0.41635605692863464 0.297446072101593 0.07428246736526489
-0.03910541161894798 -0.004904998932033777 0.10771753638982773
0.07823214679956436 -0.11540339887142181 -0.1372772604227066
-0.028906550258398056 0.34200379252433777 -0.2245854288339615
-0.22700092196464539 0.23242643475532532 -0.17426013946533203
0.21608728170394897 -0.06494805961847305 -0.02812192589044571
-0.2565375864505768 0.04298244044184685 -0.2518759071826935
0.6087946891784668 0.08475934714078903 0.08093376457691193
-0.391957551240921 0.09378300607204437 -0.020042376592755318
0.11377105861902237 -0.048677679151296616 0.037930842489004135
0.3495519757270813 -0.06069716066122055 0.30538812279701233
0.11202212423086166 0.03563889488577843 -0.06468566507101059
-0.02596290409564972 0.07456190884113312 0.11463241279125214
0.2603123188018799 0.05696999281644821 -0.07228259742259979
-0.047181032598018646 0.1309109628200531 0.14204929769039154
0.5425362586975098 -0.23131811618804932 0.4181114733219147
0.15395605564117432 -0.14127250015735626 0.13493286073207855
0.4018847346305847 0.21041077375411987 -0.21520425379276276
-0.3680580258369446 0.2224196493625641 -0.28432464599609375
0.15870721638202667 0.08732827007770538 -0.03748554363846779
-0.27754056453704834 -0.0036567356437444687 0.20395497977733612
-0.22467546164989471 -0.03955326974391937 0.336448609828949
0.32968103885650635 -0.12660415470600128 -0.10937655717134476
-0.6144717931747437 0.14440439641475677 -0.015000901184976101
-0.7933436036109924 -0.013633623719215393 -0.42948076128959656
0.23648202419281006 0.15370839834213257 0.16469168663024902
-0.27361804246902466 -0.03231597691774368 -0.05698969587683678
-0.11993514001369476 0.1430288404226303 -0.23351724445819855
-0.23740555346012115 -0.14793075621128082 -0.14941251277923584
0.2694800794124603 -0.008025815710425377 0.4109314978122711
-0.24050301313400269 0.21346133947372437 0.044574007391929626
0.4516972601413727 0.005472857039421797 0.18988557159900665
0.21211300790309906 0.12283942103385925 -0.35846710205078125
0.3521538972854614 -0.2024856060743332 0.127806156873703
0.5419657230377197 -0.1424207091331482 -0.4159834086894989
-0.009422537870705128 0.11840856820344925 0.08341296017169952
-0.06642436981201172 -0.11952921003103256 0.09246895462274551
-0.15395484864711761 -0.040801752358675 -0.10399097204208374
0.005249113775789738 -0.07863739132881165 0.17513300478458405
0.5023633241653442 -0.061264414340257645 -0.2334008812904358
-0.19679251313209534 -0.019772514700889587 -0.06539522111415863
-0.40070635080337524 0.054802462458610535 0.12545427680015564
0.20409519970417023 -0.21749000251293182 0.19831418991088867
0.43217796087265015 -0.0075663416646420956 0.442883163690567
0.03138464689254761 -0.006006745155900717 -0.19386862218379974
-0.1741608828306198 -0.03834524378180504 -0.3083067536354065
-0.2938043773174286 0.19503812491893768 0.15091706812381744
-0.5835123658180237 0.1347358226776123 0.19790972769260406
-0.26437637209892273 0.04055679216980934 0.24835996329784393
-0.45811349153518677 0.16747625172138214 0.34275272488594055
0.6866345405578613 -0.12533120810985565 0.08733365684747696
-0.6447188258171082 0.17107470333576202 0.020296841859817505
-0.5810146927833557 0.2312850058078766 0.35381099581718445
0.249344140291214 0.019382519647479057 -0.19828571379184723
0.4944234788417816 -0.101814404129982 -0.4202427864074707
-0.15153852105140686 0.1479039192199707 0.046945348381996155
-0.06630001217126846 0.05791781097650528 0.23424877226352692
-0.25240767002105713 -0.07345666736364365 -0.2696940302848816
0.8109353184700012 -0.31376439332962036 -0.05993128567934036
0.09303992986679077 -0.00686604343354702 -0.11088940501213074
-0.5453720092773438 0.1266765296459198 -0.252166748046875
0.7689800262451172 -0.15922164916992188 0.13091573119163513
0.07043138146400452 -0.0859108418226242 0.3097078502178192
-0.49987003207206726 0.2223174124956131 0.11955603212118149
0.2515551447868347 0.08720023185014725 0.14690817892551422
-0.33851873874664307 0.19731375575065613 0.12967237830162048
0.19643338024616241 -0.03942394629120827 -0.10041435062885284
-0.04448926821351051 0.25233662128448486 0.2877507209777832
-0.6785875558853149 0.41774478554725647 -0.5376543998718262
-0.38034266233444214 -0.06763476878404617 0.01245013065636158
0.1356070190668106 0.06543811410665512 -0.20919665694236755
-0.26281285285949707 0.08337819576263428 0.036776911467313766
0.2123575061559677 0.12617945671081543 -0.04456913098692894
-0.31539881229400635 0.14780229330062866 0.08424223959445953
-0.6471986174583435 0.158452570438385 -0.17528624832630157
-0.13448965549468994 0.11945968121290207 0.044235195964574814
-0.31756162643432617 0.10254639387130737 -0.24807581305503845
0.1189931258559227 -0.23602110147476196 0.45130372047424316
0.09506398439407349 -0.04268807917833328 0.14369404315948486
0.22452040016651154 0.15455420315265656 -0.25942263007164
-0.0764741376042366 0.258158802986145 -0.059360332787036896
-0.817884087562561 0.2219112068414688 0.4403437674045563
-0.012603518553078175 -0.014348352327942848 0.14887398481369019
-0.6620004177093506 -0.008158518932759762 -0.024893159046769142
-0.019599897786974907 0.031244534999132156 0.1198205053806305
-0.02889750711619854 0.004953681491315365 -0.10987083613872528
0.8243808746337891 -0.11453430354595184 0.31867530941963196
-0.0011976255336776376 0.0869891420006752 0.23273655772209167
0.014402159489691257 0.13333363831043243 0.21074765920639038
-0.42363929748535156 0.06506173312664032 -0.20933827757835388
0.2316751331090927 -0.05499090626835823 0.0746050626039505
-0.259522944688797 0.14740855991840363 0.13758297264575958
-0.2614569365978241 0.12586332857608795 0.12622886896133423
0.7569650411605835 -0.06736502051353455 -0.175938218832016
0.42761680483818054 -0.004460967145860195 0.16874392330646515
0.836773693561554 -0.319997638463974 0.06066563352942467
-0.8602015376091003 0.2886781394481659 0.022122826427221298
-0.6208864450454712 0.30198925733566284 -0.11269759386777878
0.10148907452821732 -0.07486836612224579 -0.07063063979148865
0.33044248819351196 0.17114636301994324 0.2073814421892166
-0.05091312155127525 -0.14931805431842804 -0.22081707417964935
0.2328844517469406 -0.11492735892534256 -0.01937248930335045
0.7210551500320435 -0.161484956741333 -0.3156799077987671
-0.4696604609489441 -0.17495082318782806 -0.13297028839588165
0.708225667476654 -0.10983256995677948 0.23471993207931519
0.3775568902492523 -0.08242912590503693 -0.1260947287082672
-0.1150895208120346 -0.3160936236381531 0.18830125033855438
-0.3881487250328064 -0.07708653062582016 -0.1412985771894455
0.20919691026210785 -0.13537123799324036 -0.21464605629444122
-0.4653288424015045 0.3945375978946686 0.10822377353906631
0.15070345997810364 -0.03498213738203049 -0.158988356590271
0.768357515335083 -0.21105532348155975 -0.29482004046440125
0.3322807550430298 -0.20905685424804688 -0.004610493779182434
-0.2171802669763565 0.11221731454133987 0.016854364424943924
-0.4440320134162903 -0.08244853466749191 0.45619654655456543
-0.19790518283843994 -0.03417011722922325 -0.27139249444007874
-0.028847742825746536 0.010761112906038761 -0.16236045956611633
-0.08313706517219543 0.04850071296095848 0.094972163438797
0.9559585452079773 -0.05489546060562134 0.0830802470445633
0.14178484678268433 -0.20630137622356415 -0.14211483299732208
-0.15942640602588654 -0.04975505545735359 0.3654046058654785
-0.5904945135116577 0.06321889907121658 0.20082564651966095
0.26547351479530334 0.1555873602628708 0.18108612298965454
0.14857825636863708 -0.09788414090871811 -0.30331501364707947
0.1500134915113449 0.051017265766859055 -0.03610444441437721
0.4334414303302765 -0.09653197228908539 -0.134073406457901
-0.31725215911865234 0.015542160719633102 -0.29866668581962585
0.6406461596488953 -0.33695417642593384 -0.154134601354599
0.04064711183309555 0.15215134620666504 -0.03720470517873764
-0.3718411326408386 0.24087019264698029 -0.15320095419883728
-0.03410225361585617 0.33793124556541443 -0.14105716347694397
0.5493373274803162 0.07731602340936661 -0.36960387229919434
-0.06826578825712204 -0.09304650127887726 -0.18923979997634888
-0.39960771799087524 0.2528744637966156 -0.37128910422325134
0.5056033134460449 -0.1323329508304596 -0.07243040949106216
0.576327919960022 -0.0016697326209396124 0.37917307019233704
0.1135355681180954 -0.03175179287791252 -0.014682655222713947
0.019237522035837173 0.2957180440425873 0.11363240331411362
0.16178536415100098 0.15755367279052734 -0.15553690493106842
0.09337768703699112 0.10495172441005707 0.3854159414768219
0.49121469259262085 0.019244756549596786 0.26470378041267395
0.11757369339466095 0.21114031970500946 -0.4563923478126526
-0.33881431818008423 0.21221759915351868 0.21133771538734436
0.3716314435005188 0.0875248983502388 -0.26973530650138855
-0.17552007734775543 0.06475406885147095 0.10061709582805634
0.9714381098747253 -0.18243126571178436 0.12296274304389954
0.23252356052398682 0.2681852877140045 -0.08992798626422882
0.357088178396225 -0.30798012018203735 -0.0580485463142395
-0.8693049550056458 0.056186579167842865 -0.00815292913466692
-0.32583510875701904 0.20679832994937897 -0.2291782647371292
0.15040481090545654 -0.01618121936917305 -0.07834430038928986
-0.029934188351035118 -0.010266605764627457 0.26709139347076416
0.13647837936878204 0.017372675240039825 0.2665376365184784
0.005831829737871885 -0.20342060923576355 0.010967805050313473
0.14158369600772858 -0.16374722123146057 -0.15195110440254211
0.05391876772046089 0.0139774139970541 0.0981319472193718
-0.11028805375099182 -0.05789075419306755 0.25824975967407227
0.35301852226257324 0.08389387279748917 -0.28023701906204224
-0.3676854968070984 0.27557748556137085 0.0657939463853836
0.970681369304657 -0.12331673502922058 0.3484088182449341
-0.007470007985830307 0.1442030817270279 0.25292783975601196
0.1966768056154251 -0.19514866173267365 0.37556445598602295
-0.37406811118125916 -0.07303773611783981 -0.10259798914194107
-0.18596671521663666 0.2662605941295624 -0.2971949279308319
-0.6538248658180237 -0.0011127981124445796 -0.3365984261035919
-0.034685686230659485 0.2934553027153015 0.39385780692100525
-0.6202315092086792 0.12046236544847488 -0.12011373788118362
0.06439847499132156 0.04796471446752548 0.08383147418498993
-0.4943852126598358 0.05057583004236221 -0.6656463146209717
0.08502283692359924 0.23262299597263336 -0.0011699676979333162
0.34245923161506653 0.08340880274772644 0.0320967398583889
-0.40918904542922974 0.10030914843082428 0.020688841119408607
0.4338732361793518 -0.12014998495578766 -0.03689787536859512
0.02458728849887848 0.13850514590740204 0.18653328716754913
0.40834248065948486 0.07181528210639954 -0.21189546585083008
-0.09380053728818893 0.06037818640470505 -0.13227532804012299
-0.135374516248703 -0.015642691403627396 -0.07727034389972687
-0.4847734570503235 -0.0022232765331864357 0.06425861269235611
-0.22803573310375214 0.05099765956401825 -0.17733551561832428
-0.42251959443092346 0.2648267149925232 0.08116494119167328
-0.02537786029279232 -0.06176872178912163 -0.12366129457950592
0.4985191226005554 -0.041663844138383865 -0.16350556910037994
-0.6099922060966492 0.4474470615386963 0.09824208915233612
-0.11058135330677032 0.16072450578212738 -0.2474067211151123
-0.6090096235275269 0.07542166113853455 -0.26375576853752136
0.3811783492565155 -0.25239530205726624 0.43942540884017944
-0.43098753690719604 0.03371306508779526 0.2345055490732193
-0.4950726628303528 -0.14533421397209167 -0.1497272253036499
0.16688930988311768 0.189500629901886 -0.1988421082496643
0.15260902047157288 0.3247639834880829 0.14331506192684174
-0.3622027635574341 -0.15964825451374054 0.17709997296333313
-0.10963770747184753 -0.04596817493438721 -0.24691607058048248
-0.17192190885543823 0.261269211769104 -0.09573600441217422
0.9469056129455566 -0.051590852439403534 -0.3541854918003082
0.1769167184829712 -0.08947770297527313 -0.4234520196914673
-0.42061638832092285 0.20408931374549866 -0.3176646828651428
0.4972592890262604 0.15760962665081024 0.09016180783510208
-0.3980666697025299 0.17544549703598022 -0.27845633029937744
-0.07411742210388184 -0.02969622053205967 0.13494963943958282
-0.5802190899848938 0.16896933317184448 -0.2969694435596466
0.1756351739168167 -0.03311963751912117 0.09036019444465637
-0.05040237307548523 -0.19910047948360443 0.03887462988495827
-0.18906664848327637 0.16832739114761353 -0.14290088415145874
0.13412800431251526 0.01264934055507183 -0.30374380946159363
-0.15967582166194916 -0.004351813346147537 0.11985347419977188
0.2613663077354431 -0.09888327121734619 0.21688896417617798
0.30842772126197815 0.01590101607143879 0.3188484311103821
-0.31049853563308716 0.18494950234889984 -0.09676653146743774
-0.16176430881023407 0.2262263149023056 0.206791490316391
0.134490966796875 0.15474973618984222 -0.14199307560920715
-0.4041402041912079 0.2321261316537857 -0.0647069439291954
-0.22323177754878998 0.18199723958969116 -0.0512908436357975
-0.08497605472803116 -0.19372785091400146 0.18734094500541687
0.3493748903274536 -0.11853952705860138 -0.04205974563956261
0.34331730008125305 -0.11959605664014816 -0.11436691135168076
-0.10916432738304138 0.07568962126970291 0.05135815963149071
0.20094546675682068 0.09459558129310608 0.2030877321958542
0.2648833990097046 -0.004412864334881306 -0.4283308684825897
-0.14374810457229614 0.19564983248710632 0.00214415043592453
0.6569932699203491 0.2527458965778351 0.020711928606033325
-0.09289972484111786 0.11452554166316986 0.14687906205654144
-0.16534557938575745 -0.22400489449501038 -0.11878497153520584
0.055976513773202896 0.0797293409705162 -0.18657542765140533
0.23898851871490479 0.09314234554767609 -0.09225583076477051
0.8315786123275757 -0.2987343966960907 -0.04169313982129097
-0.28532910346984863 0.1986951231956482 0.5095860958099365
-0.26498618721961975 0.08927252888679504 0.22366151213645935
0.8291599154472351 -0.2847025394439697 -0.1744660586118698
0.2342398762702942 -0.25468048453330994 -0.033702362328767776
-0.5133755207061768 0.22635728120803833 -0.10179992020130157
-0.6653239130973816 0.15655699372291565 -0.11836571246385574
-0.3735634684562683 0.1515149474143982 0.30098432302474976
-0.4721740186214447 0.10960488766431808 0.06119835004210472
0.13503655791282654 0.028977306559681892 -0.01709846593439579
0.03473706915974617 0.17575767636299133 -0.06351403146982193
-0.1358116865158081 -0.33240562677383423 0.37792983651161194
0.29797837138175964 0.01790578104555607 -0.10389096289873123
-0.874098539352417 0.24385766685009003 -0.07042521983385086
0.11860701441764832 0.17211711406707764 -0.3157903552055359
-0.5832520723342896 0.1647055447101593 -0.07397394627332687
0.07417010515928268 0.029306944459676743 0.037435173988342285
0.0829290822148323 0.243887260556221 0.04797450453042984
-0.16509632766246796 0.05883260443806648 0.16188177466392517
0.9842190146446228 0.12924230098724365 -0.34299877285957336
0.3685340881347656 -0.01145439688116312 -0.3026837110519409
-0.07668851315975189 -0.03450435772538185 0.032684970647096634
-0.052712928503751755 0.20526380836963654 0.35618725419044495
-0.0853833556175232 0.09387233108282089 0.2616950571537018
-0.24629002809524536 0.13306540250778198 0.1253853738307953
-0.20706503093242645 0.1093294695019722 -0.2841487228870392
-0.5789110064506531 0.1447082906961441 -0.2864953875541687
0.061343319714069366 -0.003136612242087722 0.07030543684959412
-0.5451964139938354 0.19999662041664124 -0.08858636766672134
1.0 -0.03197040781378746 -0.17266884446144104
-0.6654678583145142 0.22872324287891388 0.025761092081665993
-0.5428999662399292 0.25730180740356445 -0.16970990598201752
0.9177051782608032 -0.05608164519071579 0.24701453745365143
-0.361255407333374 0.07398819178342819 0.06456341594457626
0.02570280060172081 0.03423810005187988 0.14976976811885834
0.2140122503042221 -0.0663224458694458 0.00870058499276638
0.10804370790719986 0.10142450779676437 -0.10677596926689148
-0.21693405508995056 -0.005083941388875246 0.1722479909658432
0.2631520926952362 -0.01440461352467537 -0.19299167394638062
0.15525783598423004 0.07240908592939377 -0.07817661762237549
-0.31388676166534424 0.23288606107234955 -0.26423025131225586
-0.1165381446480751 -0.32242798805236816 -0.4509705901145935
-0.48800668120384216 -0.2056509107351303 0.0060630920343101025
0.11587538570165634 -0.008139043115079403 -0.23444513976573944
-0.5927286744117737 0.05252683907747269 0.0013477150350809097
-0.1199067011475563 0.19490686058998108 0.20782041549682617
0.043085794895887375 0.31839242577552795 -0.2542785406112671
-0.17157718539237976 0.07809346914291382 0.09580321609973907
0.19007883965969086 -0.14704009890556335 -0.24622610211372375
-0.33515897393226624 0.15112154185771942 -0.45946165919303894
-0.011056835763156414 -0.20949597656726837 0.13382983207702637
0.5231611132621765 0.04665889963507652 0.06271795183420181
-0.46976765990257263 -0.051709868013858795 -0.3818015158176422
-0.29713377356529236 0.07603122293949127 0.18181198835372925
0.7027606964111328 -0.05032750219106674 -0.18661615252494812
-0.20325572788715363 0.06982937455177307 -0.436685711145401
0.1318970024585724 -0.0027997931465506554 0.3199324607849121
0.4510228931903839 -0.03915056958794594 -0.4573383033275604
0.32908979058265686 -0.14727647602558136 0.1763700544834137
-0.3049100935459137 -0.08061162382364273 0.17415529489517212
0.4021904170513153 -0.017445139586925507 0.030104143545031548
-0.13141468167304993 -0.000126362094306387 -0.07317859679460526
-0.2534773647785187 -0.25464293360710144 0.41753289103507996
-0.40243661403656006 -0.0926012396812439 -0.1387353539466858
0.27006110548973083 0.1335306614637375 0.36717480421066284
0.44550997018814087 -0.14156650006771088 -0.036840736865997314
-0.3126353621482849 0.1296985000371933 -0.1317947804927826
-0.8502733111381531 -0.06439181417226791 -0.12128729373216629
0.974391520023346 0.08126171678304672 -0.1637275069952011
-0.5755682587623596 0.009984361007809639 0.023063048720359802
0.6284645199775696 -0.10449537634849548 0.01489163562655449
0.1615692526102066 0.14750272035598755 0.1511731743812561
-0.1526888757944107 0.008964955806732178 0.16333596408367157
-0.10978973656892776 0.11890874058008194 -0.565443217754364
0.23601123690605164 -0.012182190082967281 -0.2347823679447174
0.2424582540988922 0.13752232491970062 -0.1212276816368103
-0.024223117157816887 0.0993625819683075 0.022125383839011192
-0.21013149619102478 0.11354278773069382 -0.2151326686143875
-0.3979242444038391 -0.1182471290230751 -0.013382046483457088
0.07997554540634155 0.045729536563158035 0.13968712091445923
0.5103847980499268 0.07208489626646042 -0.12695097923278809
0.44362568855285645 0.046081021428108215 -0.029289914295077324
-0.3580058515071869 0.286025732755661 0.16097129881381989
0.17922507226467133 -0.1958743929862976 -0.12105357646942139
-0.28698110580444336 0.09166723489761353 -0.13450641930103302
-0.028689824044704437 -0.15465745329856873 -0.5117544531822205
0.2927567958831787 -0.014480927027761936 0.15589167177677155
0.3665331304073334 0.01619335450232029 -0.3710396885871887
0.10685031116008759 -0.24920843541622162 -0.19171348214149475
-0.924349308013916 0.12782920897006989 -0.20225806534290314
-0.11697705835103989 0.07796891778707504 -0.31139013171195984
0.019811183214187622 -0.021609388291835785 0.005885046906769276
-0.12465366721153259 -0.15747150778770447 0.10035846382379532
-0.3670654892921448 0.13336627185344696 -0.10708846896886826
-0.15967664122581482 0.13391582667827606 0.31202688813209534
0.5121148824691772 0.018204161897301674 -0.17408406734466553
-0.07111558318138123 0.10794777423143387 -0.12146028131246567
-0.09765750914812088 -0.08373171091079712 -0.26670733094215393
-0.24452579021453857 -0.04613031446933746 0.13851065933704376
-0.6301195025444031 0.33855533599853516 0.1633259654045105
0.30770090222358704 -0.02873208373785019 -0.3271554410457611
-0.08479080349206924 -0.08753323554992676 -0.25563016533851624
0.3990495502948761 -0.11538221687078476 -0.17724013328552246
0.48031893372535706 -0.04466996714472771 -0.09124943614006042
0.5366633534431458 -0.2401009202003479 -0.048267412930727005
-0.19989240169525146 0.3008328378200531 -0.2670152485370636
-0.24376767873764038 0.06525217741727829 0.05658583715558052
0.17849569022655487 0.01047633495181799 -0.01026352308690548
-0.07994730025529861 0.05280723795294762 -0.3002704381942749
-0.2178170531988144 0.33712518215179443 -0.008532289415597916
-0.5529544353485107 0.27918317914009094 -0.17748525738716125
0.12972021102905273 -0.23706366121768951 -0.24410921335220337
0.32876497507095337 0.3143922984600067 0.17297369241714478
0.14463044703006744 0.018877914175391197 0.18656311929225922
0.4699045717716217 -0.11144638061523438 -0.04506344720721245
0.28184017539024353 0.082295723259449 0.087802454829216
0.9153580665588379 -0.04254535585641861 -0.19228029251098633
0.31432604789733887 -0.15291419625282288 0.1999647170305252
0.3532426059246063 -0.09624481946229935 -0.43958353996276855
0.24503163993358612 -0.005813942290842533 0.2560180127620697
-0.10024033486843109 0.09050191193819046 -0.25638318061828613
0.5455866456031799 -0.055595722049474716 -0.655956506729126
0.6532357335090637 0.141980841755867 -0.1326482594013214
0.016091274097561836 0.009585418738424778 0.07643705606460571
-0.24068087339401245 0.04710713028907776 -0.10757595300674438
0.30453890562057495 0.07566879689693451 -0.21373067796230316
0.20337136089801788 -0.16657711565494537 -0.06446349620819092
0.1502009481191635 0.00447550043463707 -0.4770309031009674
-0.8115522861480713 0.2652501165866852 0.1513737440109253
0.20190928876399994 -0.14636032283306122 -0.07100387662649155
-0.008840113878250122 0.1274697631597519 0.03867128863930702
-0.27203047275543213 0.1294044554233551 -0.13642065227031708
0.5542535781860352 -0.0738714337348938 -0.20623314380645752
0.07897795736789703 0.055558424443006516 0.2890298366546631
-0.029603073373436928 -0.12340027093887329 0.1440363973379135
0.28006935119628906 -0.0726800337433815 -0.2435692846775055
0.7095020413398743 0.02676909789443016 -0.1938585340976715
0.4123522639274597 -0.08406047523021698 -0.33414769172668457
0.42634469270706177 -0.10974247753620148 -0.1202399730682373
-0.13451726734638214 0.20630063116550446 0.22202152013778687
0.16582566499710083 -0.05752791836857796 -0.06353961676359177
0.0066525633446872234 0.11158507317304611 0.07419168949127197
0.42090174555778503 -0.06289687752723694 -0.117386095225811
0.06981939822435379 -0.03376750275492668 -0.07055077701807022
0.23403388261795044 -0.014283357188105583 0.4770256578922272
0.448763906955719 0.14789947867393494 0.020328745245933533
-0.1993912011384964 -0.019341953098773956 0.19987159967422485
-0.38757628202438354 0.2328767627477646 -0.03463426232337952
-0.1860373616218567 0.05848928913474083 -0.023610489442944527
0.7017925381660461 0.04570898786187172 0.14107142388820648
-0.21648533642292023 0.07205356657505035 -0.0938035175204277
0.46633824706077576 0.23901385068893433 -0.08655844628810883
-0.23047888278961182 -0.22561846673488617 0.16905897855758667
-0.3190235495567322 0.012233410961925983 -0.40560129284858704
0.5585734248161316 0.01966441236436367 -0.08694019913673401
-0.22362816333770752 0.1662633717060089 -0.1521318554878235
0.035927630960941315 0.24545511603355408 -0.19659921526908875
0.2283823937177658 -0.1551813930273056 -0.23845045268535614
0.07585038989782333 -0.21624912321567535 0.026509232819080353
0.5144670605659485 -0.2615416347980499 -0.03746215999126434
0.3811974823474884 -0.18729166686534882 -0.1479083150625229
-0.2082018107175827 0.15247321128845215 0.10371219366788864
0.4947386682033539 -0.04744420200586319 0.1262562870979309
0.030238106846809387 -0.29349371790885925 -0.0556471049785614
0.047780755907297134 0.028152361512184143 -0.34437161684036255
0.5230406522750854 -0.11750928312540054 0.25721797347068787
-0.6386240720748901 0.2101772129535675 0.049346018582582474
0.5068069100379944 0.0021734556648880243 -0.21277207136154175
-0.03469398617744446 -0.11310986429452896 0.28583306074142456
-0.06774816662073135 0.13209500908851624 0.026722196489572525
0.3117092251777649 0.08620883524417877 0.04117383062839508
-0.03161221370100975 -0.1439254730939865 -0.16382791101932526
0.1661250740289688 -0.17603707313537598 -0.0027219655457884073
0.31884437799453735 -0.11677587032318115 -0.21914130449295044
-0.4791107475757599 -0.044020045548677444 -0.00538505706936121
-0.4301997125148773 0.23495054244995117 -0.2860272228717804
-0.1998908817768097 0.1787358522415161 0.13327987492084503
0.7545444965362549 -0.05040104314684868 0.07756629586219788
0.6039549708366394 -0.03505946323275566 0.11368250846862793
-0.5088587403297424 0.15281391143798828 0.04149434342980385
-0.3485022485256195 0.42785924673080444 0.2780624330043793
-0.41853347420692444 0.22540594637393951 -0.2251901775598526
0.36371198296546936 0.005780344363301992 0.10717269033193588
0.18572445213794708 -0.007980362512171268 -0.48557913303375244
0.1586446464061737 -0.09047823399305344 -0.08488297462463379
-0.3554878532886505 -0.05392872542142868 0.18326124548912048
-0.2233353853225708 0.04818922281265259 -0.23098531365394592
0.6584339737892151 -0.1306530386209488 -0.20062527060508728
-0.8371513485908508 0.22713804244995117 0.17272044718265533
-0.010243342258036137 0.13497819006443024 0.4863356947898865
-0.26759812235832214 0.25939685106277466 -0.1952212154865265
-0.04664524272084236 -0.0681624561548233 -0.032539717853069305
0.2139667272567749 -0.03216518834233284 -0.06736244261264801
0.00804906990379095 0.2747500240802765 -0.08828689903020859
-0.11685673147439957 0.07673633098602295 -0.2179788202047348
0.5074853897094727 0.1241750493645668 -0.13564027845859528
-0.21885158121585846 0.4707363545894623 0.004548949189484119
0.13633118569850922 0.16252319514751434 -0.22354380786418915
-0.021168984472751617 0.008253517560660839 -0.14666545391082764
-0.4689546525478363 0.12553295493125916 0.2633074223995209
-0.13866159319877625 0.04410059377551079 0.1974683552980423
0.47801050543785095 0.19986319541931152 0.11293812096118927
0.15276426076889038 0.01720544323325157 -0.07396320253610611
0.2181086242198944 -0.04724652320146561 0.06613672524690628
-0.6312960386276245 0.2859556972980499 0.25437554717063904
-0.16179227828979492 0.1154322549700737 -0.06009498983621597
0.36855825781822205 -0.05208687111735344 -0.2872623801231384
0.2602739632129669 -0.12439712136983871 0.27425721287727356
-0.5579416751861572 0.14591796696186066 -0.0021888918709009886
-0.4092591404914856 0.4289185404777527 0.0015329448506236076
-0.20089848339557648 -0.12807206809520721 -0.20961883664131165
0.7707250118255615 -0.250180184841156 0.13386687636375427
0.26752644777297974 0.32653313875198364 -0.2674521505832672
0.25732600688934326 0.053711000829935074 -0.0675448626279831
-0.02052260935306549 -0.028154680505394936 0.18251027166843414
-0.13108977675437927 0.06993968039751053 0.07727193832397461
-0.24777819216251373 -0.02522490732371807 -0.25087693333625793
0.1302536427974701 0.05557534098625183 -0.3204762637615204
-0.09668540954589844 0.1925036907196045 0.12357348948717117
-0.18637506663799286 -0.01945820450782776 0.07377605885267258
0.4811466336250305 0.06081478297710419 0.03096454218029976
0.02702021226286888 -0.05484325438737869 -0.05994530767202377
0.07974610477685928 -0.0019893194548785686 -0.4329722225666046
0.860429048538208 -0.161438450217247 0.18663820624351501
-0.005136226303875446 0.027351679280400276 -0.13334517180919647
-0.16784195601940155 0.0046705943532288074 -0.10823434591293335
-0.0985337346792221 0.1775130182504654 -0.09122826904058456
-0.7177408933639526 0.2949768900871277 0.28658193349838257
-0.4681348502635956 0.31170642375946045 0.1943696141242981
0.45300206542015076 0.10248246043920517 -0.07757767289876938
0.5280342698097229 -0.27708426117897034 0.1256674975156784
0.006087764631956816 0.042835138738155365 -0.0014232565881684422
0.2687891125679016 0.06973086297512054 0.12281498312950134
0.17715886235237122 0.13846734166145325 0.07290158420801163
0.4039924442768097 -0.10383889079093933 0.2704440951347351
0.18183207511901855 -0.16213954985141754 -0.3910159170627594
0.49686726927757263 0.0812428668141365 0.17424821853637695
0.6469001173973083 0.16397756338119507 0.12860903143882751
0.0009190247510559857 0.025654878467321396 -0.25449252128601074
-0.6611735820770264 0.30100736021995544 0.15272082388401031
-0.6534362435340881 0.14225488901138306 0.2405119389295578
0.08109339326620102 -0.06809502094984055 0.2201787829399109
-0.08404148370027542 0.21178248524665833 0.13423097133636475
-0.20546352863311768 0.15858303010463715 0.09959802776575089
0.6428661346435547 -0.06182263046503067 0.21733197569847107
-0.5041715502738953 0.02660205401480198 -0.1935664713382721
0.5631619691848755 0.06488032639026642 0.003315781010314822
0.37737056612968445 -0.1612342894077301 0.0027757647912949324
0.07357708364725113 -0.03235568106174469 0.002047840040177107
0.09081906080245972 -0.004015413112938404 0.022123059257864952
0.23705221712589264 0.026226041838526726 -0.39623311161994934
0.009866449050605297 0.0032840988133102655 0.16352449357509613
0.7531536817550659 -0.30034855008125305 -0.16178566217422485
-0.33050426840782166 -0.05094940587878227 0.0304353516548872
-0.4202912151813507 -0.01393889356404543 -0.007425897289067507
-0.06945433467626572 -0.029945049434900284 0.23483732342720032
-0.4151040315628052 0.10366173833608627 -0.19399383664131165
0.3402099311351776 -0.1990991085767746 0.2955203950405121
0.583761990070343 -0.24421851336956024 -0.033315714448690414
0.3586343824863434 0.06786241382360458 -0.1446511298418045
-0.7854074239730835 0.4300306737422943 0.2513546049594879
0.0757758766412735 -0.11784686148166656 0.47242772579193115
-0.20117372274398804 0.053438372910022736 0.250718891620636
-0.26256629824638367 -0.10128530859947205 -0.2073601931333542
-0.05626695230603218 0.030719859525561333 0.08392488211393356
-0.6075677871704102 0.12082802504301071 -0.15348675847053528
0.24493058025836945 -0.3213748633861542 0.2714271545410156
0.3415568768978119 -0.0639759749174118 0.1809091418981552
0.23982347548007965 0.029288604855537415 -0.15999922156333923
-0.12240635603666306 -0.06833384931087494 0.26657071709632874
-0.19530324637889862 -0.1712542325258255 -0.06813284754753113
0.03177006170153618 0.07895347476005554 0.2432900071144104
-0.04627681151032448 0.11648545414209366 -0.08582405000925064
-0.5089262127876282 0.35684165358543396 0.08242958039045334
0.5300977826118469 -0.13733212649822235 0.4013855755329132
0.43786996603012085 -0.11875098198652267 0.21053731441497803
0.8056507706642151 0.01067335531115532 -0.170089989900589
0.8405647277832031 0.007425468880683184 -0.40051886439323425
1.0 -0.1099732294678688 -0.19787104427814484
-0.21611705422401428 0.22430554032325745 0.37541884183883667
-0.23804253339767456 -0.05328085646033287 0.3057551383972168
0.5113372802734375 0.05360206589102745 -0.20783376693725586
-0.06300533562898636 0.14729182422161102 -0.10346569120883942
0.09606777876615524 0.11801158636808395 -0.02361265942454338
-0.43466803431510925 0.1681385338306427 0.1568477302789688
0.17203369736671448 0.006602287758141756 0.3820256292819977
0.4580007493495941 -0.19595904648303986 -0.31115955114364624
-0.2501009404659271 -0.09689150750637054 0.02514355629682541
-0.37229812145233154 -0.005310782231390476 0.2266853302717209
-0.6726968288421631 0.36597204208374023 -0.020471280440688133
-0.08458311855792999 0.17599543929100037 0.07059487700462341
-0.42502403259277344 0.2015112042427063 -0.2841321527957916
0.01805012859404087 -0.08542376011610031 0.11799385398626328
0.007173703983426094 0.08827889710664749 0.051272641867399216
0.4803881347179413 -0.2323918491601944 0.1428220272064209
-0.38522228598594666 0.34782832860946655 0.08537811785936356
-0.454853892326355 0.2427002191543579 0.37687626481056213
0.17529982328414917 -0.09025230258703232 0.24049672484397888
-0.07333482056856155 0.15240375697612762 0.11671678721904755
-0.46017777919769287 0.1339023858308792 -0.05963834747672081
0.08651997148990631 0.03671478480100632 0.03996169567108154
0.18598665297031403 -0.23776397109031677 -0.16248735785484314
-0.5408645272254944 -0.0055773318745195866 0.057961370795965195
-0.24686720967292786 -0.20520518720149994 -0.020708292722702026
-0.09322034567594528 0.12312082201242447 -0.08431767672300339
-0.5258132815361023 0.14726169407367706 0.353264182806015
0.2517663836479187 -0.023896053433418274 0.12724655866622925
0.13752694427967072 -0.17762617766857147 -0.7233649492263794
-0.25133076310157776 -0.011624795384705067 -0.36333346366882324
0.7738403677940369 0.0021487209014594555 -0.3580669164657593
-0.6558862924575806 0.09520965814590454 0.5008085370063782
0.4559919238090515 -0.026447340846061707 0.17462576925754547
0.5228922963142395 -0.16678425669670105 -0.11926723271608353
0.060038983821868896 0.026865646243095398 0.01978354901075363
-0.22388730943202972 0.10706213861703873 0.03417959809303284
-0.07780095189809799 0.03907737135887146 -0.11987187713384628
0.3007722496986389 -0.15619391202926636 0.04363327845931053
-0.22736071050167084 0.14684657752513885 0.2014407515525818
-0.2935583293437958 -0.11290460079908371 -0.08198520541191101
-0.23874729871749878 -0.08358477056026459 0.022808002308011055
-0.18530139327049255 -0.09963864088058472 0.03608116880059242
0.8876397609710693 -0.0933656096458435 -0.07496435940265656
0.3756216764450073 0.019423529505729675 0.1508903056383133
-0.2287260740995407 0.05449848994612694 -0.3831494450569153
0.36868706345558167 -0.2203824371099472 -0.10663675516843796
0.4837276041507721 -0.4520990252494812 0.46487125754356384
-0.2469334900379181 -0.14340871572494507 -0.0695786103606224
0.2509450912475586 -0.22081919014453888 -0.05889590457081795
0.04784141480922699 -0.07730390876531601 -0.2373366802930832
0.15135416388511658 -0.11071440577507019 -0.1474883258342743
0.29036569595336914 -0.0007622517878189683 -0.0187605582177639
0.5468726754188538 -0.26765915751457214 0.07556471228599548
-0.9312511086463928 0.04669193550944328 -0.0780801996588707
0.15387754142284393 -0.14293892681598663 0.13467682898044586
0.4673035442829132 0.14246918261051178 0.11983629316091537
-0.2812749147415161 0.023026220500469208 -0.18565525114536285
-0.12691111862659454 0.07722360640764236 -0.30478405952453613
0.31881392002105713 0.30338743329048157 0.18808840215206146
-0.2110019326210022 -0.02824300341308117 0.15967071056365967
-0.14562536776065826 -0.05544629320502281 -0.2772457003593445
-0.4807261824607849 0.01213117130100727 0.05381869524717331
-0.9981746673583984 0.17209193110466003 -0.24887454509735107
-0.16863347589969635 0.15422804653644562 0.242842897772789
-0.1740826666355133 0.39660772681236267 -0.02011043019592762
0.7662319540977478 0.05298011749982834 0.2319330871105194
-0.1993958204984665 0.17412926256656647 0.022103341296315193
-0.3940630853176117 0.0959036648273468 -0.2154902070760727
0.18992392718791962 0.09598886221647263 -0.040644947439432144
-0.4470598101615906 0.025541648268699646 -0.3587707579135895
-0.9491686224937439 0.050204336643218994 0.02124139480292797
-0.5693082809448242 0.20380480587482452 -0.3222001791000366
0.30214956402778625 0.09868597984313965 -0.1026170402765274
0.10567446798086166 0.016384493559598923 0.07423093914985657
0.3890931308269501 -0.09175212681293488 -0.43746522068977356
-0.11791976541280746 0.29072922468185425 -0.27794188261032104
0.06459879130125046 0.02153482660651207 0.35119298100471497
-0.8419662714004517 0.3304871618747711 -0.3808698058128357
0.3017810881137848 -0.11138231307268143 0.15910981595516205
-0.10712890326976776 -0.02300358936190605 -0.13887816667556763
-0.4100658893585205 -0.0994158610701561 0.1391669362783432
-0.3931235373020172 -0.1111845001578331 -0.13871461153030396
0.49048683047294617 0.04490577429533005 -0.07921172678470612
-0.16219916939735413 0.29098400473594666 0.033106885850429535
0.08917928487062454 0.08699603378772736 0.13499560952186584
0.369404137134552 -0.0735611692070961 0.09271450340747833
-0.06069893017411232 -0.0063736317679286 0.11115018278360367
0.672677755355835 -0.1851641982793808 -0.025463677942752838
-0.22051404416561127 0.06007060408592224 -0.15204820036888123
0.45854651927948 -0.10126844793558121 -0.1279239058494568
0.3366744816303253 0.04037252441048622 0.009042940102517605
0.95070880651474 -0.3760678768157959 0.006526245269924402
-0.37564215064048767 0.07216423749923706 0.2858940362930298
-0.1360403597354889 -0.07976900786161423 0.4153389036655426
0.12430193275213242 -0.1710468977689743 0.3263474702835083
0.3215479254722595 0.09193826466798782 -0.27913013100624084
0.26553064584732056 -0.11093230545520782 -0.11004842072725296
0.7593157887458801 -0.09235990792512894 -0.13322940468788147
-0.07707688957452774 0.1480957567691803 0.29634031653404236
-0.23218360543251038 0.1904473900794983 -0.03633897006511688
-0.17001065611839294 0.32535749673843384 0.4777223467826843
-0.14893147349357605 0.13778094947338104 -0.15936721861362457
-0.09430737793445587 0.16660955548286438 0.15572378039360046
0.0005077001405879855 -0.014593605883419514 0.23108923435211182
-0.49425527453422546 0.12759925425052643 0.1798429787158966
-0.1414957046508789 -0.012564354576170444 -0.06012926995754242
-0.028956806287169456 0.1050625815987587 0.016168810427188873
-0.49308639764785767 0.1379767209291458 0.34107211232185364
-0.3164326250553131 0.3737082779407501 -0.01634404994547367
-0.18434259295463562 0.14457659423351288 0.3833254873752594
0.518885612487793 -0.08035638183355331 -0.20104268193244934
0.36213722825050354 -0.12108273059129715 0.06278766691684723
-0.12740473449230194 0.09753350913524628 -0.027606360614299774
-0.3382956087589264 -0.15217435359954834 -0.10274136811494827
0.11220668256282806 0.0791432112455368 0.05485185608267784
-0.10854806005954742 0.006498189643025398 0.07446300983428955
-0.5896515250205994 0.24531520903110504 0.002403662307187915
-0.42289790511131287 0.26592835783958435 -0.030474107712507248
0.6453601121902466 -0.12757983803749084 -0.05192368105053902
0.09040441364049911 -0.1605323702096939 -0.03477281332015991
0.30336272716522217 -0.16644038259983063 -0.00017765727534424514
-0.21830742061138153 0.13982580602169037 0.1817457526922226
0.3339025378227234 -0.028341494500637054 0.28286537528038025
-0.2567043602466583 0.09313695877790451 -0.28769388794898987
-0.18324801325798035 -0.020316384732723236 0.17725442349910736
-0.35964345932006836 0.1361987590789795 0.06924352049827576
-0.3271670639514923 0.08907342702150345 -0.24573007225990295
-0.14338402450084686 0.12144589424133301 -0.07531928271055222
-0.23798760771751404 -0.0996265634894371 0.0045800707302987576
0.037215739488601685 0.019928088411688805 -0.048661667853593826
0.5688433051109314 0.08933309465646744 0.4075053930282593
-0.250842422246933 -0.14593206346035004 -0.23378346860408783
0.0049353172071278095 -0.10172244161367416 -0.08799751102924347
0.9761515855789185 -0.14909547567367554 -0.15089581906795502
0.327002614736557 0.0633632093667984 0.1438433676958084
0.38441887497901917 -0.34257009625434875 0.3119535744190216
-0.09889942407608032 0.23978295922279358 -0.26576679944992065
-0.2532198131084442 0.06693607568740845 -0.3356284499168396
-0.18154360353946686 0.12418714165687561 -0.18994347751140594
0.3181092143058777 -0.21248003840446472 -0.039337966591119766
0.26690673828125 -0.36597388982772827 -0.46564802527427673
0.519150972366333 0.1663091480731964 0.4369232952594757
-0.011866173706948757 -0.18394704163074493 0.03215758129954338
-0.37026673555374146 -0.07987100630998611 0.05070577561855316
-0.2277323305606842 0.08937236666679382 0.41881439089775085
-0.6736232042312622 0.1656501442193985 -0.14505739510059357
-0.502660870552063 -0.21784444153308868 0.3529045283794403
-0.033292606472969055 0.030141819268465042 -0.45162174105644226
-0.2952497899532318 -0.05354941636323929 -0.3542373478412628
0.45446857810020447 -0.056233059614896774 0.02522839978337288
0.3686695396900177 -0.05858943238854408 0.10214594006538391
-0.5633094310760498 0.06948085874319077 0.05520051717758179
0.49984097480773926 0.16153739392757416 0.2777675688266754
-0.7147812843322754 0.17270515859127045 0.1561475396156311
0.5334055423736572 0.0786941647529602 -0.04824209213256836
0.519734263420105 0.1566963493824005 -0.2762591540813446
0.35466381907463074 -0.16876061260700226 0.09696570783853531
0.11495266109704971 -0.06645678728818893 -0.19481250643730164
-0.163260355591774 0.21003326773643494 -0.3185967803001404
0.007954925298690796 0.11653698235750198 -0.32543936371803284
-0.17081986367702484 -0.1393231898546219 0.22605517506599426
0.026741839945316315 0.059250760823488235 -0.42521098256111145
0.2701982259750366 0.13717147707939148 -0.16011779010295868
-0.17477698624134064 0.018012668937444687 0.027384763583540916
0.11935662478208542 0.021121211349964142 0.45525407791137695
0.6835886836051941 -0.11444351822137833 -0.10538261383771896
0.5735204219818115 -0.042175475507974625 -0.48484647274017334
0.42574170231819153 0.013191205449402332 0.06145459786057472
-0.39699462056159973 0.22472944855690002 -0.19843804836273193
0.1130603551864624 -0.2154769003391266 0.21743278205394745
-0.7264652848243713 0.10852015018463135 0.036670420318841934
-0.032536741346120834 -0.010651320219039917 0.20252783596515656
0.17084689438343048 0.13622598350048065 -0.14062854647636414
-0.11270616203546524 0.11132560670375824 0.2221490740776062
0.3323488235473633 -0.09679415822029114 -0.18470199406147003
0.770453691482544 -0.1219911202788353 -0.1594718098640442
0.18417635560035706 0.06709904223680496 0.010954516008496284
-0.3918810784816742 0.18564943969249725 -0.1270282119512558
-0.24907279014587402 0.039548102766275406 -0.21785710752010345
-0.691969633102417 0.006106407381594181 -0.09682045131921768
0.17419487237930298 0.13732673227787018 -0.10488422214984894
-0.5744733810424805 0.05608845874667168 -0.014932981692254543
0.16578470170497894 -0.0003409456985536963 -0.01990482211112976
0.6242257952690125 -0.23171716928482056 0.13102097809314728
-0.24542035162448883 -0.15744535624980927 0.07854047417640686
-0.14229851961135864 0.1634780913591385 -0.4806607961654663
0.5704470276832581 -0.05180596932768822 -0.2550513446331024
0.3094819486141205 -0.19891709089279175 0.4959501624107361
0.06532646715641022 0.01035157311707735 -0.18008576333522797
-0.7939155697822571 -0.0034636377822607756 0.084747813642025
0.4123227596282959 -0.07970346510410309 0.011998707428574562
0.08251244574785233 -0.11103297770023346 -0.10558720678091049
0.6524980664253235 0.012751618400216103 0.02325386367738247
-0.18545161187648773 0.1433129906654358 0.25300127267837524
-0.16886983811855316 0.04038279131054878 -0.2054743468761444
