ply
format ascii 1.0
element vertex 792
property float x
property float y
property float z
end_header
0.3022944927215576 -0.05182003974914551 0.11869169026613235
0.06654118001461029 -0.004152265377342701 0.35996150970458984
-0.46349433064460754 0.7729170918464661 -0.1722954362630844
-0.34582194685935974 0.6681005954742432 -0.29675158858299255
-0.10137488692998886 -0.08536212146282196 0.2711995244026184
-0.4257499873638153 0.5918431878089905 -0.008179719559848309
-0.3421925902366638 -0.0008740766206756234 -0.19852137565612793
-0.2867535650730133 0.006351239513605833 -0.11515752226114273
0.24029257893562317 0.041441235691308975 0.09435693919658661
0.03813237324357033 -0.13530823588371277 0.20839644968509674
0.20865823328495026 0.15496063232421875 -0.49807068705558777
-0.42427900433540344 0.4892538785934448 0.3353581130504608
0.10851980745792389 0.011603811755776405 0.14653326570987701
-0.10965665429830551 -0.012762777507305145 0.39734360575675964
-0.19975616037845612 0.05115136504173279 0.4662688672542572
0.45915114879608154 -0.4037244915962219 -0.41043367981910706
0.24333016574382782 -0.06273693591356277 -0.05396119877696037
-0.3471648097038269 0.3239300549030304 -0.17545928061008453
0.489217072725296 -0.210566446185112 -0.1828499287366867
-0.3492215871810913 -0.2323102056980133 -0.29621422290802
0.23848386108875275 -0.011636474169790745 -0.378063440322876
-0.44210758805274963 0.2951841950416565 0.0688215121626854
0.2840447425842285 0.06703082472085953 -0.2615833878517151
0.3900635540485382 -0.11077501624822617 -0.385052353143692
-0.4057627320289612 0.5672060251235962 -0.15237416326999664
0.2652914822101593 0.03466807305812836 -0.07999718934297562
-0.02653627283871174 -0.07954058051109314 -0.2897108793258667
-0.24247390031814575 0.11318086832761765 0.4087018668651581
-0.06497444957494736 0.02631380222737789 0.10115976631641388
-0.3197369873523712 -0.7155768871307373 -0.2405933141708374
-0.11841874569654465 -0.12170084565877914 0.15073396265506744
-0.2003631293773651 0.22793862223625183 -0.04382708668708801
-0.24485914409160614 -0.20184795558452606 -0.43404653668403625
-0.3721103370189667 -0.2695704400539398 0.3984125256538391
-0.34188684821128845 0.12558650970458984 0.20123440027236938
-0.1512826681137085 0.09094330668449402 0.16705070436000824
-0.1620420515537262 -0.22607295215129852 0.3183956444263458
-0.12490646541118622 -0.10762930661439896 -0.20775707066059113
-0.09233834594488144 -0.5365121960639954 -0.2808918356895447
0.2436254322528839 0.032669298350811005 0.44245103001594543
-0.4637608826160431 0.5555539131164551 0.3462407886981964
-0.4051920771598816 0.7121986150741577 -0.3368360698223114
-0.3449847102165222 0.3305458128452301 -0.22063666582107544
-0.03750874102115631 -0.03279898315668106 -0.3099619746208191
-0.40060338377952576 0.42574945092201233 -0.3368314206600189
0.3190144896507263 0.053870789706707 -0.1673211008310318
-0.21311073005199432 -0.37657344341278076 0.3166595697402954
-0.04832812771201134 0.17585201561450958 -0.3144875168800354
-0.4560805857181549 0.5237975716590881 0.16608446836471558
0.004419576842337847 -0.21540679037570953 0.010469081811606884
-0.16704556345939636 -0.1728857159614563 -0.07847251743078232
0.23965615034103394 -0.08672823011875153 -0.23366619646549225
0.13563305139541626 -0.32357272505760193 0.16654552519321442
-0.3598410189151764 0.6636540293693542 0.33636948466300964
0.24360981583595276 0.08716123551130295 0.29071393609046936
-0.09949293732643127 0.04739997908473015 -0.2824648916721344
0.08880659937858582 0.024480484426021576 -0.15795373916625977
-0.37346380949020386 0.45545661449432373 0.07576213777065277
0.37551388144493103 -0.27542492747306824 0.10396210104227066
0.39772555232048035 -0.6592461466789246 0.327720582485199
-0.31121253967285156 0.3391176760196686 -0.31815028190612793
0.42559194564819336 -0.01887660287320614 -0.2833362817764282
0.3073849380016327 -0.1180540919303894 0.31606629490852356
0.04390482231974602 0.08110544085502625 0.4510219991207123
-0.1540897935628891 0.015138239599764347 0.2578408420085907
-0.2297421097755432 0.32063037157058716 -0.13475662469863892
-0.2980620861053467 -0.4145585894584656 0.24198248982429504
0.40956541895866394 -0.08671757578849792 -0.09022800624370575
0.3737650215625763 0.06889750063419342 0.25646060705184937
-0.15996551513671875 -0.12742163240909576 0.2997521460056305
-0.18696768581867218 0.013546298258006573 0.2547929584980011
-0.36351773142814636 0.6537768244743347 -0.07554224133491516
-0.5638650059700012 0.5364111065864563 -0.2160472571849823
-0.15624435245990753 0.10489806532859802 -0.2708350121974945
0.29742947220802307 0.04686596989631653 -0.020239103585481644
-0.29536986351013184 0.04947081208229065 -0.18543991446495056
-0.02034858614206314 -0.04451339319348335 0.12829813361167908
-0.45779862999916077 0.47412925958633423 -0.06530643254518509
-0.38960906863212585 0.5360018610954285 0.14379163086414337
0.2795151472091675 -0.10634595900774002 -0.111244335770607
-0.18669162690639496 0.15313680469989777 -0.22989247739315033
-0.0061971829272806644 0.03959633409976959 0.11324208974838257
-0.036192525178194046 0.1940336972475052 0.2897409200668335
-0.22494661808013916 -0.20957240462303162 0.020025450736284256
-0.20389162003993988 -0.18463411927223206 0.14621460437774658
0.005398183595389128 -0.03517308831214905 -0.13763174414634705
0.3727884590625763 -0.4807223677635193 0.32328373193740845
0.3520469069480896 -0.005198072642087936 -0.20017719268798828
0.3122422397136688 -0.2037636935710907 0.26426273584365845
0.061612799763679504 0.09589606523513794 0.18645010888576508
-0.2850792109966278 0.07615528255701065 -0.06065928936004639
-0.29082155227661133 0.23006129264831543 0.2810891568660736
0.09627562761306763 -0.3281444311141968 0.14021502435207367
-0.23370593786239624 0.16024112701416016 0.0566437765955925
0.39646393060684204 0.0911438837647438 -0.32105889916419983
0.20633603632450104 -0.08120035380125046 -0.2551316022872925
-0.20485743880271912 0.0761752724647522 -0.3055765926837921
0.1103762611746788 0.16832970082759857 0.369544118642807
0.2043592780828476 0.13277137279510498 -0.017825765535235405
0.27724820375442505 -0.2810293436050415 0.285360723733902
0.3281859755516052 0.01986483857035637 0.13802945613861084
-0.16991256177425385 0.08203456550836563 0.432638555765152
0.5511921644210815 -0.2719150185585022 0.1276852786540985
-0.10603643953800201 0.0012802205746993423 -0.0956680029630661
0.2230905443429947 -0.017587793990969658 -0.10688929259777069
0.27003586292266846 -0.1829153448343277 0.33203184604644775
0.4518040120601654 -0.3267803490161896 -0.13359983265399933
-0.3055189251899719 0.3171560764312744 0.1493394523859024
0.3365476131439209 -0.5105372667312622 0.2567460834980011
-0.3615620732307434 0.4262480139732361 0.1381436288356781
-0.14494070410728455 0.021826161071658134 -0.1738012582063675
0.45060768723487854 0.10429687052965164 0.22837671637535095
0.3704710006713867 -0.12010126560926437 0.18721380829811096
0.48446521162986755 -0.052946578711271286 0.14781443774700165
-0.012239172123372555 -0.39159485697746277 -0.2261091023683548
0.11597515642642975 -0.3538894057273865 -0.10117322206497192
-0.41655397415161133 0.1885390281677246 -0.1615905463695526
-0.2231491655111313 0.1968582272529602 0.3498169183731079
-0.3669394552707672 0.1842687577009201 0.3758094608783722
-0.20571020245552063 0.3446617126464844 -0.4237416684627533
0.5759544968605042 -0.15902091562747955 -0.180054172873497
0.15028579533100128 -0.10656308382749557 -0.2894725203514099
0.2735988199710846 -0.10802312940359116 -0.2517355680465698
-0.22412627935409546 0.3272547721862793 -0.09196209907531738
-0.3923511207103729 0.6047891974449158 -0.2036624252796173
0.3927342891693115 0.14639785885810852 -0.4197917878627777
0.3040856420993805 -0.3446503281593323 0.19676798582077026
-0.34279724955558777 0.42180195450782776 -0.11715152859687805
0.2900049686431885 -0.20288698375225067 0.2058037370443344
-0.1870713233947754 0.34519481658935547 0.2377312183380127
0.07765800505876541 -0.057830728590488434 0.03500368818640709
-0.2534939646720886 0.2302122265100479 -0.00992157869040966
0.2854759097099304 -0.026075396686792374 0.29766711592674255
0.008475779555737972 0.09516536444425583 -0.00398824131116271
0.5315164923667908 0.004558660555630922 0.32564398646354675
-0.24375613033771515 -0.3721258044242859 0.1527993530035019
0.19692398607730865 -0.08495230227708817 0.14226442575454712
-0.012769856490194798 0.059575457125902176 0.3554069995880127
-0.21972092986106873 0.2665260136127472 0.4019187092781067
-0.22466550767421722 0.3389323651790619 -0.4205639362335205
0.39119893312454224 -0.022569674998521805 -0.3126334846019745
0.4082939326763153 -0.35077714920043945 -0.26334133744239807
-0.3784632980823517 -0.3494449555873871 -0.29492589831352234
0.3596031069755554 0.01727999374270439 -0.381420373916626
-0.3427964150905609 0.15530860424041748 -0.2795499265193939
-0.1294117271900177 0.02628481015563011 -0.4498777687549591
-0.33052289485931396 0.34630972146987915 0.1938788890838623
0.016297979280352592 -0.0874231830239296 0.04676824063062668
0.07212318480014801 0.05616942420601845 0.3159278631210327
-0.023606302216649055 -0.05754465237259865 -0.3120838701725006
0.36876150965690613 0.037397053092718124 0.18149946630001068
-0.174055814743042 0.040870171040296555 -0.14154955744743347
-0.22390154004096985 -0.19009047746658325 0.07136160880327225
0.2538703382015228 -0.18567191064357758 -0.00911785289645195
0.3155805766582489 -0.2936824560165405 -0.253002405166626
-0.371705561876297 0.1788366585969925 -0.4067997634410858
-0.23328039050102234 0.07152808457612991 0.2546978294849396
-0.371187299489975 0.6518786549568176 0.15555554628372192
0.4205982983112335 -0.07242397218942642 0.40484321117401123
0.3846650719642639 0.1010165810585022 0.3184998631477356
0.4186258018016815 -0.34670931100845337 -0.31571537256240845
-0.34025222063064575 0.2368924468755722 -0.3010101318359375
0.17422986030578613 -0.4876548945903778 0.16878996789455414
-0.13850505650043488 -0.0027643805369734764 0.37439873814582825
-0.1830580234527588 -0.11657869815826416 0.24779397249221802
0.2422952950000763 -0.5574550628662109 0.4140039384365082
0.26833781599998474 -0.06675972789525986 0.12218044698238373
-0.2016811966896057 -0.33590105175971985 0.3636171519756317
-0.06606101989746094 0.08492646366357803 0.03254449740052223
0.09888895601034164 0.10961887240409851 0.05992821604013443
-0.24619120359420776 0.04897252842783928 0.007917101494967937
-0.44475626945495605 0.42132776975631714 0.2593754231929779
-0.04765743017196655 -0.08338344842195511 -0.30609777569770813
-0.13062310218811035 0.01782611757516861 0.24880443513393402
-0.3748911917209625 0.24346214532852173 -0.1546066850423813
-0.09511193633079529 -0.13257186114788055 -0.2335643470287323
0.17663925886154175 -0.07463796436786652 -0.29050198197364807
0.2961895167827606 0.004332931712269783 0.2480735331773758
-0.3401150107383728 0.5051286220550537 0.2717152535915375
-0.31329411268234253 0.3561490774154663 0.32807132601737976
-0.37637439370155334 0.024685870856046677 0.18342235684394836
0.4519059956073761 -0.025438440963625908 -0.05676630511879921
-0.42431238293647766 0.3800491988658905 0.1810549944639206
-0.4391961693763733 0.6124785542488098 -0.37092193961143494
-0.35209619998931885 0.6337297558784485 -0.018754681572318077
-0.20580416917800903 0.13788579404354095 0.16853047907352448
0.22003795206546783 0.08184359222650528 -0.34446579217910767
-0.25971493124961853 -0.05002380162477493 -0.15736272931098938
0.26988571882247925 -0.20299649238586426 0.3156389594078064
-0.3820592761039734 0.49786487221717834 0.20124171674251556
-0.261572927236557 0.36494699120521545 -0.3310631811618805
-0.24144846200942993 0.215126171708107 0.13607005774974823
0.31481531262397766 -0.09995219856500626 0.3220813274383545
0.2985210120677948 -0.23191973567008972 -0.4221048653125763
0.3147779703140259 -0.07287641614675522 0.17444868385791779
-0.4782034754753113 0.4900466799736023 -0.037066660821437836
-0.5229452252388 0.4323202073574066 -0.25540605187416077
0.051033470779657364 -0.05257526785135269 0.01033040415495634
0.28999027609825134 -0.5383309721946716 -0.40210872888565063
0.09067574888467789 -0.0011267556110396981 -0.286145955324173
0.42948150634765625 -0.5615137219429016 0.32797789573669434
-0.20830518007278442 0.20112359523773193 0.25037065148353577
0.043416667729616165 0.05493290722370148 -0.15517817437648773
-0.2725507318973541 -0.1798122078180313 0.19431455433368683
0.39546436071395874 -0.40975794196128845 -0.2569734454154968
0.39946094155311584 -0.6350225806236267 0.1799691915512085
0.290764719247818 -0.26358523964881897 -0.2558611035346985
-0.41103920340538025 0.6846707463264465 -0.1899787187576294
-0.14597070217132568 -0.09710127860307693 -0.21030810475349426
0.17597702145576477 -0.22240588068962097 0.4402196407318115
0.5946747064590454 0.047570761293172836 0.2395307421684265
-0.38334909081459045 -0.24675171077251434 -0.0994018167257309
0.2542778253555298 -0.011385953053832054 0.38831084966659546
-0.2778934836387634 -0.24123701453208923 -0.17196336388587952
-0.13260826468467712 -0.008911198005080223 0.17616398632526398
-0.2928756773471832 -0.4294971227645874 -0.31839388608932495
-0.2574916481971741 0.1440836489200592 0.1672932207584381
-0.3672948181629181 0.7501636743545532 0.13165733218193054
-0.2844650149345398 0.42465075850486755 -0.12228776514530182
0.3451128900051117 0.1617569774389267 -0.35983267426490784
0.23429107666015625 -0.14063817262649536 -0.2776927351951599
-0.3870382606983185 0.45959311723709106 -0.03722550347447395
-0.23508095741271973 0.3090718686580658 0.19984827935695648
-0.336013525724411 0.35166600346565247 -0.10780046880245209
0.5236688256263733 -0.013375460170209408 0.006351873744279146
-0.2576090097427368 0.17036420106887817 -0.3589368164539337
0.001467640046030283 0.005818217992782593 -0.07765698432922363
0.18987780809402466 0.02113913744688034 -0.043995026499032974
-0.14344356954097748 0.017226427793502808 0.2926267683506012
0.13293960690498352 0.04901260510087013 0.3104323744773865
0.1555061936378479 -0.2903500497341156 0.20627738535404205
0.3697419762611389 -0.007393008563667536 0.2845092713832855
-0.29167094826698303 -0.08550569415092468 -0.07307466119527817
-0.38731035590171814 0.4605211913585663 -0.03980563208460808
-0.3938191831111908 0.48133793473243713 0.026816150173544884
-0.343382865190506 0.6315855979919434 0.08686245232820511
0.3156924247741699 0.03738025203347206 0.2507942020893097
0.33166277408599854 -0.18698850274085999 0.24582038819789886
0.013259508647024632 -0.3131835460662842 0.09960562735795975
-0.008465846069157124 0.07238952070474625 -0.052506450563669205
-0.18824708461761475 0.35039836168289185 0.19737175107002258
-0.3614697754383087 0.033598192036151886 -0.47822222113609314
-0.19152434170246124 0.09099122136831284 0.4537014663219452
0.17942756414413452 0.056925080716609955 -0.1708640307188034
-0.19899961352348328 0.21836906671524048 0.00979582779109478
0.03708571195602417 -0.005773684475570917 -0.2334347516298294
0.03310631960630417 -0.43531373143196106 0.33417823910713196
-0.33552640676498413 0.20772822201251984 0.31241434812545776
0.18151921033859253 -0.06149126961827278 -0.43161630630493164
0.5923053026199341 -0.2810222804546356 0.20276612043380737
0.45199570059776306 -0.06175289675593376 -0.22829778492450714
-0.002300021704286337 0.05314220115542412 -0.04465050622820854
-0.3333800137042999 0.39171484112739563 -0.190854012966156
-0.003530023852363229 0.1314266324043274 0.386515349149704
0.25762632489204407 -0.1259576678276062 0.1789969652891159
0.2603042423725128 -0.3531392216682434 0.3236368000507355
-0.29610803723335266 0.17273396253585815 0.2304638922214508
0.2854791581630707 -0.08803240954875946 0.21158520877361298
0.3241015374660492 -0.2678389549255371 -0.043259017169475555
-0.0020357377361506224 -0.3703441321849823 0.13891483843326569
0.2992624342441559 0.16814115643501282 -0.4471853971481323
0.410629540681839 -0.04182225838303566 -0.32300761342048645
0.09404698759317398 -0.14329521358013153 -0.409708172082901
0.506152331829071 -0.30833932757377625 -0.2793136239051819
0.03854355961084366 -0.04618280753493309 -0.3582853376865387
-0.3588487505912781 0.29610714316368103 0.36629772186279297
0.3168701231479645 -0.1774275153875351 0.2250348925590515
-0.11369431763887405 0.17003807425498962 0.10109969228506088
0.0071820165030658245 -0.06478128582239151 -0.284774512052536
0.01713232882320881 -0.32615140080451965 -0.4026931822299957
-0.2995297610759735 0.09486786276102066 0.221671462059021
-0.4362449049949646 0.6392133235931396 -0.1396762728691101
0.2517339885234833 0.08816269040107727 0.24205085635185242
-0.3127482533454895 0.21652428805828094 -0.24005357921123505
0.5881281495094299 0.03971373289823532 0.14130668342113495
0.19660122692584991 0.006616317667067051 -0.1730896383523941
-0.11172918975353241 -0.18683026731014252 -0.23815742135047913
-0.19791369140148163 -0.16699980199337006 0.27680477499961853
-0.2339673787355423 0.11127886921167374 -0.0746241882443428
0.3547060191631317 -0.1795833706855774 0.17198505997657776
-0.3226829171180725 -0.32593846321105957 -0.3071214258670807
-0.24013793468475342 -0.48381707072257996 0.3529433012008667
-0.1458529382944107 -0.11265111714601517 0.19132530689239502
-0.2848889231681824 -0.2151128500699997 0.20374654233455658
0.36642083525657654 -0.6171781420707703 -0.37870627641677856
-0.4034842848777771 0.5375189781188965 0.3296065032482147
-0.1938709318637848 -0.0015623385552316904 -0.19994419813156128
-0.2566767632961273 0.14585888385772705 0.02653941884636879
-0.13074401021003723 0.0523049533367157 -0.37421441078186035
0.13651388883590698 0.04726320132613182 0.27176570892333984
0.16908401250839233 0.02170315757393837 0.2918691635131836
0.22891263663768768 -0.20640678703784943 -0.3142468333244324
0.16570058465003967 0.0007205619476735592 -0.1082306057214737
-0.06387113779783249 -0.2662853002548218 -0.24597813189029694
0.4505726993083954 -0.25688377022743225 0.31605398654937744
-0.13175643980503082 0.018669936805963516 -0.2530548870563507
-0.45863038301467896 0.2071058601140976 0.22709868848323822
-0.2299424707889557 -0.26341530680656433 0.29903098940849304
-0.23810243606567383 -0.3491560220718384 -0.2886615991592407
-0.29455530643463135 0.02680552378296852 0.3003011643886566
-0.3924531936645508 0.07072517275810242 0.2851872146129608
0.32391005754470825 -0.13764184713363647 0.29569482803344727
-0.3058227598667145 0.4742794632911682 -0.3102910816669464
-0.13014928996562958 -0.33226510882377625 0.4196615517139435
-0.4307648837566376 0.7586824893951416 -0.15794382989406586
-0.15478616952896118 -0.2531314790248871 0.06396777927875519
0.3970939815044403 0.05085677281022072 0.2550622224807739
-0.3958684206008911 -0.19278040528297424 0.3067314624786377
0.006803493946790695 -0.13966402411460876 -0.1133313700556755
0.3920656144618988 -0.025418950244784355 -0.13994713127613068
-0.15465004742145538 0.233354389667511 -0.124069444835186
-0.3095700144767761 -0.17021726071834564 0.25571849942207336
-0.15425673127174377 0.051286544650793076 -0.42419081926345825
0.21308633685112 -0.09654300659894943 -0.3000927269458771
0.4969441890716553 0.004705081228166819 0.2539147734642029
-0.08222882449626923 0.1524229496717453 0.0022768087219446898
0.3271108865737915 0.09775182604789734 0.4426800012588501
0.4179752767086029 -0.18500390648841858 0.3499578535556793
0.17787215113639832 -0.06215750426054001 -0.06450991332530975
-0.31954458355903625 0.2842334806919098 0.22234754264354706
0.4583714008331299 -0.02059621550142765 0.2750876843929291
-0.27212217450141907 -0.13657888770103455 -0.24278691411018372
0.4650324583053589 -0.1644008755683899 0.22005927562713623
-0.2650448977947235 0.0988534614443779 0.06887858361005783
-0.297922283411026 -0.2139672189950943 -0.3410058617591858
0.3732074797153473 0.05221003293991089 0.2664484977722168
-0.44933775067329407 0.3694486916065216 0.36994048953056335
0.3094342052936554 -0.4428297281265259 -0.33910295367240906
-0.29576021432876587 0.13165384531021118 -0.240494042634964
-0.15133237838745117 0.2855759561061859 0.17306432127952576
0.37853309512138367 -0.3108096420764923 0.2494562268257141
-0.2884571850299835 0.3133423328399658 0.38665521144866943
-0.004178705159574747 0.1436120867729187 0.37192636728286743
-0.13099032640457153 -0.34358930587768555 0.12694351375102997
0.15251098573207855 -0.15166449546813965 0.20941399037837982
-0.22715690732002258 0.18070006370544434 0.18473178148269653
-0.1305207461118698 -0.016435343772172928 0.2119406759738922
-0.27239736914634705 -0.03539670631289482 0.13119982182979584
0.2285907119512558 0.012300479225814342 0.08559921383857727
-0.4027336537837982 0.5269094705581665 0.15389491617679596
0.5065192580223083 -0.1970704048871994 0.22635476291179657
-0.12355756759643555 0.0846099779009819 -0.1434558779001236
-0.3692423105239868 0.3958233594894409 0.09612919390201569
0.15333348512649536 0.08692394196987152 0.33483389019966125
-0.32389095425605774 0.5014395117759705 -0.34568512439727783
0.08101548254489899 0.06638489663600922 -0.38908621668815613
-0.3287377953529358 -0.1916588842868805 0.24382928013801575
-0.42664358019828796 -0.22441017627716064 0.22022151947021484
0.5137430429458618 -0.19589106738567352 -0.016021566465497017
-0.4894554316997528 0.5818171501159668 -0.2206185758113861
0.4556938707828522 -0.1720980852842331 -0.19134914875030518
-0.3615027666091919 0.22187268733978271 0.16963905096054077
-0.21297411620616913 -0.3006322383880615 -0.35836461186408997
-0.4454118311405182 0.46933236718177795 -0.19258567690849304
0.2177579551935196 -0.2767452895641327 0.342346727848053
-0.16333092749118805 0.2810737192630768 -0.19551163911819458
-0.2355605959892273 -0.07255865633487701 -0.5085046887397766
0.2499900460243225 -0.03282777592539787 0.28438419103622437
0.19530749320983887 0.02851182594895363 -0.15277674794197083
-0.05271647498011589 0.0873808041214943 -0.2369215339422226
-0.2698591351509094 0.19764436781406403 0.14955639839172363
0.10160188376903534 -0.03790672495961189 0.015471263788640499
0.3270568549633026 -0.03655757009983063 0.19247254729270935
0.4179568588733673 -0.3545399010181427 0.35893943905830383
-0.28533700108528137 0.15260763466358185 -0.33457517623901367
0.4658828377723694 -0.16693347692489624 -0.23671482503414154
-0.05540189892053604 0.07562774419784546 -0.32443639636039734
-0.3560290038585663 0.13878312706947327 -0.19706813991069794
0.24065156280994415 0.075178362429142 -0.3043361306190491
-0.2669614851474762 0.4075430929660797 -0.1463187038898468
-0.32521602511405945 0.13555757701396942 0.3052898049354553
-0.246116504073143 0.14662642776966095 -0.20014995336532593
-0.4613986015319824 0.4431515634059906 -0.2829335033893585
0.2737722098827362 0.021756649017333984 -0.12458524852991104
0.5035877823829651 -0.1677636057138443 -0.26609930396080017
-0.43181467056274414 0.5579389333724976 -0.23286105692386627
0.14403501152992249 0.1725088357925415 0.4609328508377075
0.4302634596824646 -0.29345908761024475 0.007975430227816105
-0.24818414449691772 0.09880579262971878 -0.2728097140789032
0.00879999715834856 -0.6211336851119995 0.2767317295074463
-0.06984339654445648 -0.04243697226047516 -0.00272826268337667
-0.35611334443092346 0.46032822132110596 0.3098343014717102
0.22404730319976807 -0.007355184759944677 0.23148658871650696
0.22455190122127533 -0.47200265526771545 0.24447563290596008
-0.3691751956939697 0.3419713079929352 -0.1355278193950653
0.23190681636333466 0.032369162887334824 -0.2273683100938797
0.03432847186923027 -0.056005097925662994 0.06116268411278725
0.3005104660987854 -0.02802368812263012 -0.2640698254108429
-0.49612319469451904 0.4525410234928131 0.12941955029964447
-0.3397880494594574 0.44378945231437683 0.23337699472904205
-0.30544015765190125 0.28080132603645325 0.21675530076026917
-0.32702866196632385 0.06350354850292206 -0.2633019685745239
0.09941628575325012 -0.11475151032209396 0.14415700733661652
0.2632492780685425 0.17001409828662872 0.014102770015597343
-0.046686526387929916 -0.15031908452510834 0.31319454312324524
-0.211461141705513 -0.4443127512931824 0.3543623387813568
0.4349009692668915 -0.03970767930150032 0.32233041524887085
0.13476358354091644 -0.17605359852313995 -0.3757712244987488
-0.13557906448841095 0.1915806531906128 0.24411004781723022
-0.3517700135707855 0.668601930141449 -0.04953356087207794
0.32100799679756165 -0.006462863180786371 -0.3970758616924286
-0.1648847907781601 0.19184350967407227 0.2140025943517685
0.4534109830856323 0.03694409877061844 0.304400771856308
-0.008550607599318027 0.060825031250715256 0.08244775235652924
-0.005327632650732994 -0.33053508400917053 -0.07146606594324112
-0.3225571811199188 0.31898176670074463 0.173188254237175
-0.24065446853637695 0.17129839956760406 0.30764850974082947
-0.21731704473495483 0.1915101706981659 -0.23942895233631134
-0.3638165295124054 0.5791684985160828 0.23032532632350922
0.358599990606308 -0.01824207790195942 0.0908178985118866
-0.13304683566093445 -0.20671622455120087 -0.1528586894273758
0.04323122650384903 0.007158230524510145 -0.17982420325279236
-0.2728418707847595 -0.27170562744140625 -0.23679602146148682
0.560162365436554 -0.15727752447128296 0.24261361360549927
-0.36560094356536865 0.5197200775146484 -0.3688279092311859
-0.4745299816131592 0.3672419786453247 0.010846632532775402
0.3141176402568817 -0.42655396461486816 0.40873250365257263
-0.1036023423075676 -0.20568282902240753 -0.15471383929252625
-0.36517709493637085 -0.2249908596277237 0.20250463485717773
-0.23675550520420074 -0.05423067510128021 0.23219946026802063
-0.3797605037689209 0.39120057225227356 -0.16009818017482758
0.24742136895656586 -0.019887814298272133 0.3262748420238495
-0.13969486951828003 0.039254412055015564 -0.2505669891834259
0.38604864478111267 0.12869539856910706 0.056325700134038925
-0.03191911801695824 0.07216913253068924 -0.03344227746129036
0.2281479388475418 -0.05865546688437462 0.14159999787807465
0.20866182446479797 -0.11319391429424286 0.0588008277118206
-0.04318792372941971 -0.06468211114406586 0.32656535506248474
-0.2297833263874054 0.13966508209705353 0.3476674556732178
-0.2618524730205536 0.2678305208683014 -0.3855437934398651
-0.08740388602018356 -0.031436122953891754 0.06837888807058334
-0.21945194900035858 0.3386174142360687 0.2837744653224945
0.5036278963088989 -0.059610769152641296 0.37398743629455566
-0.4093243479728699 0.4672112762928009 0.16471131145954132
-0.23384395241737366 0.408662348985672 0.27671509981155396
0.20709502696990967 -0.01870228536427021 0.1874750852584839
0.29591047763824463 0.0401848629117012 -0.3363088369369507
0.42006269097328186 -0.22950220108032227 0.2083766609430313
-0.35340774059295654 0.21995939314365387 0.25146201252937317
-0.26380446553230286 0.3111637830734253 -0.4448663890361786
-0.2626471519470215 0.026814673095941544 -0.2505186200141907
-0.2724399268627167 0.3653467893600464 -0.1366892158985138
0.1329406499862671 -0.17577123641967773 -0.11831019818782806
-0.3559221029281616 0.45339927077293396 0.35400593280792236
0.08464455604553223 -0.06080818176269531 -0.029504474252462387
-0.22508397698402405 -0.036119576543569565 -0.3637557029724121
0.43850451707839966 0.07182198017835617 0.2801189124584198
-0.4080510437488556 0.4773578345775604 0.042008839547634125
0.595444917678833 -0.21217754483222961 -0.1999318152666092
0.18402962386608124 0.05563696473836899 -0.3230712115764618
0.45266929268836975 -0.40187984704971313 0.3654869794845581
-0.29734623432159424 -0.44006580114364624 0.13989360630512238
-0.07851877063512802 -0.006189373321831226 -0.003972906153649092
-0.4136877655982971 0.3753826916217804 -0.19399100542068481
-0.2444935292005539 -0.09922541677951813 0.14903679490089417
0.13624687492847443 -0.0070404536090791225 -0.15183967351913452
0.025545060634613037 -0.12381818890571594 0.1736462265253067
-0.27562636137008667 -0.031785186380147934 -0.1467805951833725
-0.2484036684036255 0.3293357789516449 -0.44546061754226685
0.13581013679504395 0.015367738902568817 -0.32982370257377625
0.1930527240037918 -0.16021358966827393 0.02107471227645874
-0.31749874353408813 0.15674258768558502 0.21698901057243347
0.2849503755569458 -0.31785041093826294 0.34942835569381714
0.06368880718946457 -0.2010069042444229 -0.18848282098770142
-0.13587404787540436 -0.056448522955179214 0.07525841891765594
-0.22763483226299286 0.12002039700746536 0.0535413920879364
0.3816312253475189 0.07066842913627625 -0.43976742029190063
0.5509063601493835 0.058112118393182755 -0.2647954225540161
-0.330282986164093 -0.625521719455719 -0.38278821110725403
0.3276211619377136 -0.21193933486938477 -0.4505094885826111
-0.18469224870204926 -0.02178109809756279 0.37294209003448486
-0.39163878560066223 0.17009057104587555 0.029469242319464684
-0.3419050872325897 0.2283765971660614 -0.0471353605389595
-0.05859752371907234 0.04586132615804672 0.07687559723854065
-0.37975019216537476 0.257333368062973 -0.03389764577150345
-0.3224705755710602 0.4488762617111206 0.06617176532745361
-0.4437263309955597 0.7290797829627991 0.09486033022403717
0.11782847344875336 -0.2440718561410904 -0.3655557930469513
0.3799070715904236 -0.004956773482263088 -0.35369551181793213
-0.08168640732765198 0.01169706229120493 -0.41300058364868164
0.34533536434173584 -0.0859098881483078 0.33302077651023865
0.393575519323349 -0.47392335534095764 -0.18104185163974762
-0.5212334394454956 0.6800804138183594 0.09235358238220215
-0.380405992269516 0.36924052238464355 0.16242198646068573
0.351802796125412 -0.055844008922576904 -0.19260002672672272
-0.4176493287086487 0.7565281391143799 -0.18285542726516724
-0.17142896354198456 -0.1893574297428131 0.22892387211322784
-0.0410938635468483 0.00010686308814911172 0.2761683464050293
0.24112345278263092 0.03927011787891388 0.054250553250312805
0.3288767337799072 -0.3426413834095001 -0.1796477735042572
0.19159813225269318 0.0758107528090477 -0.5375210046768188
-0.13512864708900452 -0.17497047781944275 0.3534853756427765
0.3678516745567322 -0.2742607593536377 -0.29077914357185364
0.29313015937805176 -0.3828794062137604 0.3794598877429962
0.16236324608325958 0.10204464942216873 0.48429834842681885
0.3733780086040497 -0.09924113750457764 -0.07479290664196014
-0.2697921097278595 0.0562504380941391 -0.0603046789765358
-0.3159891366958618 0.19204017519950867 -0.3430691957473755
0.05066455900669098 -0.04552941024303436 -0.32135021686553955
-0.35382142663002014 -0.3093688189983368 0.34860754013061523
0.2666054666042328 0.18314887583255768 0.29127809405326843
-0.13677191734313965 -0.20449401438236237 0.20746682584285736
0.33051973581314087 0.061428263783454895 0.3566179573535919
0.09477359056472778 -0.14385539293289185 0.07800557464361191
-0.024679437279701233 -0.36532509326934814 0.364699125289917
-0.13253217935562134 -0.10809020698070526 0.08350364863872528
0.10439558327198029 0.13754236698150635 0.14570532739162445
0.13625404238700867 -0.10327015817165375 0.158248171210289
0.4186994731426239 -0.11920204013586044 0.1884642243385315
0.1783088892698288 -0.17969344556331635 0.24123893678188324
0.08057457208633423 -0.08987969160079956 0.21797072887420654
-0.15572117269039154 0.2556442618370056 0.12760406732559204
0.15123265981674194 -0.4450162351131439 0.29409798979759216
-0.29071348905563354 0.14592412114143372 0.14635927975177765
0.3598720133304596 -0.032371245324611664 0.1261930763721466
-0.11263921111822128 0.1618265062570572 0.2719658613204956
0.4322558343410492 -0.4415633976459503 0.2698875069618225
0.00015721093222964555 -0.45885151624679565 -0.3219202160835266
-0.4801763892173767 0.6548353433609009 0.21434266865253448
-0.215809166431427 0.2286151796579361 -0.19090507924556732
0.46912693977355957 -0.12596359848976135 0.19016951322555542
0.3610195219516754 -0.04772835969924927 0.23839128017425537
-0.1592216044664383 0.06735887378454208 0.034305915236473083
-0.31117337942123413 0.20100387930870056 -0.2257373183965683
0.31375622749328613 0.06076273322105408 -0.18516208231449127
0.29215896129608154 -0.4246712327003479 -0.2565518915653229
-0.470313161611557 0.25658053159713745 0.3511177897453308
-0.2445230782032013 0.07483403384685516 0.29316020011901855
0.37339967489242554 -0.100664883852005 0.3479670584201813
0.48754408955574036 -0.18637794256210327 0.3632362186908722
0.053619805723428726 -0.0659123882651329 0.23523642122745514
-0.40173450112342834 0.7271521687507629 -0.10088585317134857
-0.42148175835609436 0.6415601968765259 -0.08092893660068512
0.11952181160449982 0.020878931507468224 0.048718225210905075
0.04539055749773979 -0.05549681931734085 0.1097051277756691
0.497560977935791 0.08638358861207962 0.1608395129442215
-0.2557443380355835 0.19728747010231018 -0.1470075398683548
-0.3142060935497284 0.11057791113853455 -0.1681138426065445
-0.2760678231716156 -0.0800873339176178 -0.09160111099481583
-0.3254029154777527 -0.3919201195240021 0.1233975812792778
-0.50546795129776 0.4241202175617218 -0.309996634721756
0.3755777180194855 -0.28121915459632874 0.2081427127122879
0.24266724288463593 0.04818270355463028 0.44145962595939636
-0.3972918391227722 0.24219299852848053 -0.17405368387699127
-0.3276351988315582 0.2698768079280853 0.3500424027442932
-0.29883873462677 -0.1739761233329773 -0.018735529854893684
0.43539267778396606 -0.31883659958839417 0.18100406229496002
0.3983772099018097 -0.14551351964473724 0.390737384557724
-0.3709409236907959 0.5181666016578674 -0.16616667807102203
-0.18053686618804932 -0.3611465096473694 0.08476120233535767
-0.3702279329299927 0.7474978566169739 -0.18178915977478027
-0.2392025738954544 0.11366474628448486 -0.03897685930132866
-0.18676303327083588 0.10459581762552261 0.40364041924476624
-0.3921509385108948 0.3130236268043518 -0.03804628178477287
0.06591130793094635 0.17105577886104584 -0.38374921679496765
-0.22316518425941467 0.14011818170547485 0.27782806754112244
0.25422531366348267 -0.0684361681342125 0.2659180164337158
-0.19606103003025055 0.06027156859636307 0.39949676394462585
0.1486883908510208 0.11294843256473541 -0.2976871728897095
0.18925414979457855 -0.017068926244974136 0.37602418661117554
0.03997339680790901 -0.014211965724825859 -0.10551846772432327
-0.30973267555236816 -0.12776526808738708 0.2856089770793915
0.10248464345932007 0.03980320692062378 0.03407537192106247
-0.389432430267334 0.7598257660865784 -0.0920826643705368
-0.22579865157604218 -0.4132228493690491 -0.3179573714733124
0.17736323177814484 -0.4534759819507599 0.2667197585105896
-0.24502217769622803 0.01905347965657711 -0.2598605155944824
-0.32330068945884705 0.012674257159233093 0.052785612642765045
-0.1573457568883896 0.11855872720479965 -0.08090303093194962
-0.2934739589691162 0.4022727608680725 0.005853133741766214
-0.5016980171203613 0.3291108310222626 -0.11465200781822205
0.17406563460826874 -0.2489956021308899 0.31761598587036133
-0.40653538703918457 0.08088977634906769 0.22044333815574646
0.10797104239463806 0.1294141411781311 -0.34236961603164673
0.1132754236459732 -0.13599570095539093 -0.04414064437150955
0.38772061467170715 -0.18601179122924805 -0.3189461827278137
-0.5050464272499084 0.6635586023330688 0.01234858762472868
-0.18126310408115387 -0.31713488698005676 -0.1155342236161232
0.4870910048484802 -0.3009404242038727 0.20848122239112854
-0.4472908675670624 0.6665927171707153 0.09258951246738434
-0.35340601205825806 -0.047333452850580215 0.37589356303215027
0.18967953324317932 0.018598472699522972 0.008508406579494476
-0.12949064373970032 -0.24249985814094543 0.18694713711738586
-0.37900081276893616 0.3387572169303894 0.4215987026691437
0.2700204849243164 -0.4720779359340668 -0.3325658142566681
0.3861045241355896 0.10829620063304901 0.40504783391952515
0.3984760344028473 -0.024589931592345238 -0.30009767413139343
0.5574029088020325 -0.10412043333053589 0.265912264585495
-0.050979483872652054 -0.006277990527451038 -0.1269245594739914
-0.2007518857717514 0.07319974899291992 -0.23323389887809753
-0.37561821937561035 0.47152459621429443 0.40383219718933105
-0.37584158778190613 0.324323445558548 0.18852852284908295
-0.1571962535381317 0.1618732362985611 -0.10702171921730042
-0.3408230245113373 0.32298892736434937 -0.0814259946346283
0.4398428499698639 -0.568476140499115 0.28088563680648804
-0.3139396607875824 0.47331923246383667 -0.26719844341278076
-0.10697424411773682 -0.366290807723999 -0.32606473565101624
-0.3563463091850281 0.5988190770149231 0.04829787462949753
0.2600191533565521 -0.25492212176322937 0.07060445845127106
-0.27099812030792236 -0.36626261472702026 0.32880985736846924
0.3804153800010681 -0.5337412357330322 0.3360283672809601
0.3625038266181946 -0.299916535615921 -0.3374476730823517
-0.34613698720932007 -0.08500341325998306 0.03890077769756317
0.3532788157463074 -0.08079879730939865 -0.27225497364997864
-0.34979647397994995 0.46018242835998535 -0.2076185643672943
0.2767356038093567 -0.11251195520162582 0.11782290041446686
-0.2759819030761719 0.26467078924179077 0.11387594044208527
0.4313918948173523 -0.223739892244339 -0.33636733889579773
-0.3629172146320343 0.4815719425678253 0.19256915152072906
0.08664222061634064 0.10318072885274887 0.04648798704147339
0.3088042140007019 -0.04343872889876366 0.3185809850692749
0.04753047972917557 0.11525187641382217 0.14822541177272797
0.07172224670648575 -0.2665971517562866 0.27186739444732666
0.2567856013774872 0.00297455838881433 -0.11781676858663559
-0.12857311964035034 0.1574927419424057 -0.40773460268974304
0.02749684453010559 0.17922057211399078 -0.38850128650665283
0.21540838479995728 0.05335249379277229 -0.07276212424039841
-0.27114731073379517 0.3030301034450531 0.04860943928360939
-0.2692669630050659 0.18971246480941772 0.15413182973861694
-0.3476426899433136 0.40515270829200745 -0.1309177130460739
-0.334367036819458 0.389394074678421 0.28963181376457214
-0.3726766109466553 -0.12312935292720795 0.25095096230506897
-0.12051277607679367 0.19567494094371796 -0.23492318391799927
-0.07730787247419357 -0.060112323611974716 0.26992642879486084
0.11532111465930939 -0.11368529498577118 -0.02370164729654789
0.4018726944923401 0.0889032706618309 0.19113004207611084
0.2448912113904953 -0.04463024437427521 -0.26066941022872925
0.3242846727371216 -0.5549265146255493 0.2285291850566864
-0.34146296977996826 -0.31862694025039673 0.3244723379611969
-0.17812232673168182 -0.37026527523994446 -0.34695619344711304
0.21890053153038025 0.1576225608587265 0.4498133063316345
-0.30660396814346313 0.505025327205658 -0.19492019712924957
0.08841419219970703 0.0831264927983284 -0.12127505987882614
-0.2916727364063263 0.13143907487392426 -0.04963666945695877
-0.3398408591747284 -0.21620894968509674 -0.22936208546161652
-0.3772027790546417 0.6217414140701294 -0.3179602324962616
0.17717207968235016 0.1071116030216217 0.06601884216070175
-0.2381240725517273 0.22094157338142395 0.3606909513473511
-0.4007568955421448 0.6127919554710388 -0.16365401446819305
-0.39444372057914734 0.3005014955997467 0.32629773020744324
-0.3732808828353882 0.005728617776185274 -0.18951904773712158
0.24674570560455322 -0.12413685023784637 0.155168354511261
0.2379700392484665 -0.04272111505270004 -0.0024516507983207703
0.48977866768836975 -0.3193265199661255 0.32351720333099365
0.18703021109104156 0.0771002471446991 -0.43450620770454407
-0.3471592962741852 0.09751269966363907 -0.08408768475055695
-0.3371976613998413 0.3672042489051819 0.0014314460568130016
-0.2591017782688141 0.542719304561615 0.2477203905582428
-0.27801886200904846 0.4920015335083008 -0.005870116408914328
-0.2984834909439087 0.07640129327774048 -0.3169710040092468
-0.3615669310092926 0.5427120327949524 -0.009499472565948963
-0.21422483026981354 0.028942838311195374 -0.09308777004480362
-0.02783300168812275 0.03714432939887047 0.03883071616292
-0.18940769135951996 -0.41779792308807373 0.1806526482105255
0.030909201130270958 -0.01491478830575943 -0.156443253159523
0.29069066047668457 -0.27538761496543884 -0.08511734008789062
-0.2631429433822632 0.14854110777378082 -0.47887754440307617
0.22749949991703033 0.051839638501405716 0.07888063788414001
0.5158016681671143 -0.057611703872680664 0.3826776146888733
-0.24255405366420746 0.21531936526298523 0.2796904742717743
0.09896756708621979 -0.0352591872215271 0.11072905361652374
0.25950250029563904 -0.09987873584032059 0.34474533796310425
0.27231401205062866 -0.2668083608150482 0.37542882561683655
0.4243990182876587 0.07275618612766266 0.3231065571308136
-0.17934739589691162 0.08528388291597366 -0.1474815011024475
-0.4533859193325043 0.7758654952049255 0.2657518684864044
-0.07780834287405014 -0.18082046508789062 -0.2357633411884308
-0.10405603051185608 0.041570547968149185 0.16984304785728455
-0.36071282625198364 0.18094903230667114 0.07270961254835129
-0.14650551974773407 -0.34144049882888794 0.31812676787376404
-0.39739447832107544 0.11190060526132584 -0.08931475132703781
-0.28498172760009766 -0.07162714749574661 -0.2338632345199585
0.43638184666633606 -0.023813458159565926 0.11934245377779007
-0.17855483293533325 -0.12351352721452713 0.10353615880012512
-0.1648012399673462 -0.016898661851882935 -0.2272653877735138
-0.2557833194732666 0.43396350741386414 -0.3452424705028534
0.26331254839897156 -0.13024896383285522 -0.0064783175475895405
-0.2873445749282837 -0.036091744899749756 -0.3994971215724945
-0.16941320896148682 0.2111816257238388 -0.2946079969406128
0.285438597202301 -0.15731489658355713 -0.33616846799850464
0.4237980246543884 -0.1725754588842392 0.2350635975599289
-0.200997993350029 0.13045582175254822 -0.2969059348106384
-0.3890095353126526 0.7167120575904846 -0.14185932278633118
0.1469280868768692 -0.018666941672563553 0.281730055809021
-0.35150837898254395 0.8008210062980652 -0.06562333554029465
0.0917162075638771 0.0323307104408741 0.4400010108947754
-0.2236526906490326 0.19849801063537598 0.33302831649780273
-0.3354622423648834 0.5749183297157288 0.06541737169027328
-0.4635004997253418 0.6732209324836731 -0.13140703737735748
-0.25095808506011963 -0.012927600182592869 0.2332415133714676
0.29959413409233093 -0.14587844908237457 -0.27990907430648804
0.47415655851364136 0.041382547467947006 0.3739572763442993
0.023611700162291527 0.01725083589553833 0.09161379933357239
0.5323936343193054 0.07904595881700516 -0.30768075585365295
-0.1837313026189804 -0.27524274587631226 -0.300970196723938
-0.3197135329246521 0.23967082798480988 -0.20095966756343842
0.10007496923208237 -0.027698267251253128 -0.23258550465106964
-0.4489743411540985 0.5894311666488647 -0.17058847844600677
-0.2117449790239334 -0.2371056228876114 -0.16593095660209656
0.07206591218709946 -0.09081967175006866 -0.034198395907878876
-0.4840407371520996 0.8115404844284058 0.06545957922935486
0.5691173672676086 -0.27333498001098633 -0.22683840990066528
0.30935150384902954 -0.030553694814443588 0.21496643126010895
0.0011492847697809339 0.14780278503894806 -0.3209836483001709
0.015665993094444275 -0.07927374541759491 0.1984766125679016
0.2466745227575302 -0.04300730302929878 -0.08499585837125778
0.2896394431591034 0.18863457441329956 -0.48794835805892944
0.47659188508987427 -0.37180909514427185 -0.2549086809158325
-0.14761137962341309 -0.0965123251080513 -0.28694960474967957
-0.37187206745147705 -0.14809080958366394 -0.05206559970974922
0.24129223823547363 -0.47448456287384033 -0.3978748321533203
-0.38144609332084656 0.5517078042030334 -0.3592531681060791
0.0729648545384407 0.0032657014671713114 -0.0033453803043812513
-0.20488040149211884 0.11755499243736267 0.10151571780443192
-0.12139759957790375 0.10986742377281189 0.4463336765766144
0.2600935101509094 0.05307804048061371 0.27598315477371216
0.07029955834150314 -0.03459155932068825 0.26857995986938477
-0.00283227302134037 -0.025694506242871284 -0.39997801184654236
-0.2968577742576599 0.28406819701194763 0.0689469426870346
0.05532646179199219 -0.1796971708536148 -0.24525152146816254
0.4180825352668762 -0.06809025257825851 -0.3640569746494293
-0.38391026854515076 -0.06548214703798294 -0.017697734758257866
-0.41782331466674805 0.35464179515838623 0.26765531301498413
-0.2599935531616211 0.10666198283433914 -0.20592030882835388
-0.22004389762878418 -0.08477099984884262 0.34822016954421997
-0.29222390055656433 0.20863351225852966 -0.17034949362277985
0.26651692390441895 0.09112091362476349 -0.0697491392493248
-0.3692813813686371 0.5999618768692017 -0.2001328319311142
-0.33682721853256226 0.37826237082481384 -0.337301105260849
-0.407956063747406 -0.40700504183769226 -0.35292744636535645
-0.08387266099452972 0.19652925431728363 -0.24544177949428558
0.151168555021286 -0.05214526504278183 -0.24077469110488892
-0.42182421684265137 0.5835186839103699 0.12679441273212433
-0.3018515408039093 0.14536486566066742 -0.25227469205856323
-0.03507136553525925 0.014861281961202621 0.2035054713487625
-0.16828308999538422 0.06440826505422592 -0.34290769696235657
-0.36547738313674927 0.3899590075016022 -0.17194801568984985
0.23985357582569122 0.004520482383668423 0.02780623733997345
-0.3866783380508423 0.11212479323148727 -0.03961331769824028
-0.20734229683876038 -0.22569230198860168 -0.19067086279392242
0.35438796877861023 0.010222775861620903 -0.3158741295337677
0.2578222453594208 0.03165528550744057 -0.30814751982688904
0.32873180508613586 -0.27612221240997314 -0.2799223065376282
0.20715005695819855 -0.41827428340911865 -0.338705837726593
-0.312470018863678 0.4672524929046631 -0.20850686728954315
-0.1812380999326706 0.11584515124559402 0.38392356038093567
0.3612343370914459 0.05743910372257233 -0.2500802278518677
0.045481789857149124 0.1612304151058197 0.03578563034534454
-0.3821980357170105 0.35649728775024414 0.09195396304130554
-0.266387939453125 -0.014190180227160454 0.024971727281808853
-0.03980742022395134 -0.03401743620634079 0.12382743507623672
0.40364930033683777 0.14200147986412048 -0.2500014305114746
0.20869487524032593 -0.02880614437162876 0.30964598059654236
0.2484675645828247 -0.29588374495506287 0.3142414391040802
0.3539432883262634 -0.2323427051305771 -0.3700098991394043
-0.17016863822937012 0.10994521528482437 -0.0596899650990963
-0.021860212087631226 0.15730589628219604 -0.29074805974960327
-0.27435171604156494 0.27319851517677307 -0.06960947811603546
0.2510787546634674 -0.19772693514823914 -0.22461535036563873
-0.009522529318928719 0.029178105294704437 -0.1872895359992981
0.1305159628391266 -0.2675929069519043 -0.2711808383464813
0.3055202066898346 -0.062172938138246536 0.32716187834739685
-0.08349176496267319 -0.02405744604766369 -0.30407413840293884
0.23181378841400146 0.0592024065554142 -0.12868423759937286
-0.3688601553440094 0.3794001340866089 -0.1666916459798813
0.31212443113327026 -0.3282407522201538 -0.43559086322784424
-0.3052298128604889 0.03776293620467186 0.24214082956314087
-0.3146267235279083 -0.46975016593933105 0.40875959396362305
-0.2760172486305237 -0.067364901304245 0.2159501165151596
0.1057312935590744 0.18420571088790894 -0.35830146074295044
0.3186362087726593 -0.11774175614118576 0.3522076904773712
0.40273186564445496 -0.10272818803787231 0.20022469758987427
-0.20660164952278137 0.10752373188734055 -0.4404022991657257
0.516575813293457 0.013602536171674728 -0.13872931897640228
-0.04357057064771652 0.004585974849760532 0.2918831408023834
-0.23006097972393036 0.23791120946407318 -0.03145714849233627
0.045567817986011505 0.04811630770564079 -0.01791543886065483
-0.1446843147277832 0.13356837630271912 0.03579352796077728
-0.32216495275497437 0.4129501283168793 0.07903804630041122
-0.1581752449274063 0.037053704261779785 0.2573423385620117
-0.17438164353370667 -0.05786420777440071 0.33920297026634216
-0.40310758352279663 0.5902694463729858 -0.21856924891471863
0.4172709584236145 -0.12793241441249847 0.27330395579338074
0.3931676149368286 -0.24150052666664124 -0.13134297728538513
0.30240464210510254 -0.10574319958686829 -0.3564120829105377
0.22977960109710693 -0.023227835074067116 -0.3412289023399353
-0.06793360412120819 0.0037597445771098137 -0.21311251819133759
-0.3320409059524536 -0.43255701661109924 -0.26658767461776733
0.342416912317276 0.08044792711734772 0.24395020306110382
-0.3421466648578644 0.7097458243370056 -0.21876680850982666
-0.2066202014684677 -0.17883354425430298 -0.2584531307220459
0.13275191187858582 -0.06418939679861069 0.2992323637008667
